# .PCD v0.7 - Point Cloud Data file format
VERSION 0.7
FIELDS x y z
SIZE 4 4 4
TYPE F F F
COUNT 1 1 1
WIDTH 1560
HEIGHT 1
VIEWPOINT 0 0 0 1 0 0 0
POINTS 1560
DATA ascii
237.07834 -19.953852 882.46698
237.64937 -19.87286 882.96118
238.20792 -19.774376 883.46045
238.75279 -19.659754 883.94006
240.1955 -19.783894 885.32568
242.93922 -20.256769 887.91174
252.22429 -21.455391 903.45129
259.71246 -21.589121 916.50989
261.3425 -21.817482 921.82635
262.02176 -22.020084 925.05621
262.19394 -22.148184 926.26227
262.19659 -22.238935 926.47174
130.91344 -22.673056 978.2287
131.90318 -22.661034 977.23273
132.78046 -22.572847 976.20502
133.5818 -22.433809 975.15356
134.5836 -22.505217 973.20209
135.18674 -22.229801 972.09601
135.69243 -21.884665 970.96307
136.33487 -21.709545 968.91211
136.99428 -21.623903 965.91016
137.56395 -21.399431 963.84637
138.28465 -21.36562 960.86847
139.12798 -21.430296 957.91974
140.26666 -21.810061 954.06616
141.94403 -22.857061 947.435
142.19713 -22.155315 948.2135
143.21269 -22.462664 944.33887
143.63257 -21.974833 944.18823
144.18138 -21.672203 943.10229
144.61784 -21.19607 942.9549
145.27307 -21.066845 940.92847
145.79706 -20.749441 939.836
146.47705 -20.738543 936.85236
147.2133 -21.066032 930.99841
147.48785 -20.959705 926.00128
148.60208 -21.399187 921.37665
149.84291 -21.955742 915.99927
150.40561 -21.793941 913.961
150.78262 -21.460032 912.72479
151.02592 -21.123596 910.4906
151.25653 -20.792463 908.23761
151.54863 -20.441034 906.91302
151.86365 -20.11413 905.5899
152.23749 -19.902689 903.37811
152.57333 -19.681982 901.12787
152.98329 -19.521008 898.90222
153.55661 -19.529457 895.81757
154.00565 -19.42495 893.51941
154.46518 -19.444218 890.20764
155.25673 -19.593208 887.26947
156.49251 -19.830933 884.99896
157.72829 -19.959936 883.70557
159.26234 -20.07674 882.3252
160.74547 -20.074295 881.17065
161.67497 -20.010721 880.50824
162.6107 -19.918201 879.92792
163.31804 -19.880434 879.4892
164.26147 -19.779858 878.96136
165.00543 -19.749437 878.56824
165.77023 -19.717468 878.20117
166.55182 -19.70187 877.83459
167.3576 -19.687319 877.49567
167.85295 -19.824263 877.40533
168.71599 -19.843218 877.06372
169.59735 -19.873354 876.73145
170.49683 -19.913206 876.41101
171.41191 -19.962519 876.09503
172.34828 -20.010773 875.82806
173.30069 -20.060347 875.59351
174.26663 -20.104509 875.38342
175.24141 -20.147291 875.20667
176.2276 -20.185463 875.0611
177.22034 -20.223892 874.93158
178.22516 -20.250153 874.84821
179.23788 -20.267258 874.79749
180.2813 -20.465601 874.89655
181.31084 -20.471523 874.93286
182.39401 -20.656738 875.14886
183.44125 -20.6528 875.25067
184.48688 -20.628174 875.38055
185.46823 -20.423061 875.3382
186.50441 -20.400154 875.47327
187.5406 -20.383347 875.59338
188.57614 -20.361368 875.71558
189.61124 -20.33263 875.85754
190.53918 -20.122175 875.76868
191.55725 -20.105471 875.85266
192.57307 -20.09572 875.91174
193.59007 -20.087677 875.96271
194.60202 -20.076691 876.01715
195.61508 -20.070131 876.05402
196.62605 -20.062555 876.09009
197.63321 -20.072081 876.0545
198.46735 -19.861542 875.85187
199.64861 -20.089447 875.995
200.46471 -19.885359 875.75653
201.66415 -20.132719 875.82733
202.67572 -20.155901 875.73346
203.6938 -20.182125 875.63696
204.71732 -20.218569 875.49744
205.73643 -20.245129 875.39124
206.4926 -20.032137 875.17822
207.79062 -20.311714 875.1214
208.82372 -20.346498 874.97095
209.86589 -20.391867 874.82697
210.57478 -20.173977 874.64459
211.60239 -20.199865 874.55035
212.6273 -20.234781 874.45587
213.6496 -20.254341 874.41284
214.67841 -20.270897 874.3623
215.70415 -20.288557 874.33118
216.72568 -20.295261 874.31659
217.75658 -20.300148 874.30487
218.77957 -20.294224 874.34027
219.79491 -20.282141 874.39166
220.80334 -20.257311 874.48785
221.80849 -20.21977 874.6145
222.80333 -20.194584 874.71582
223.27997 -19.883722 874.71832
224.23271 -19.833462 874.8927
225.15071 -19.757723 875.16132
226.04517 -19.674179 875.47058
226.92096 -19.585527 875.80139
227.76318 -19.489756 876.18701
229.08372 -19.592575 876.91309
229.87419 -19.487963 877.37024
231.15018 -19.56649 878.21149
231.87424 -19.45927 878.7226
232.57253 -19.357271 879.24768
233.2654 -19.253321 879.7605
233.90659 -19.155312 880.30133
234.5374 -19.080742 880.81769
235.14731 -18.98608 881.33569
235.74594 -18.906351 881.83875
236.83815 -18.976692 882.81128
237.41978 -18.881392 883.31415
238.44637 -18.928486 884.30481
239.43042 -18.961372 885.18976
242.82892 -19.582016 888.19635
245.62076 -19.928341 891.2323
253.51135 -20.526993 906.16931
261.85614 -20.792749 925.76764
262.00809 -20.960514 926.97253
262.0144 -21.083986 927.15594
262.05801 -21.194574 927.33612
262.0965 -21.3505 928.57385
132.16949 -21.727365 977.30963
133.11185 -21.685671 976.302
133.9424 -21.569407 975.25934
134.69048 -21.3955 974.19446
135.36641 -21.170296 973.10864
135.96805 -20.8936 972.00177
136.32361 -20.368742 971.78278
137.13531 -20.387115 968.82526
137.69699 -20.158276 966.75714
138.26215 -19.927736 964.69604
138.87146 -19.734116 962.65039
139.97702 -20.156456 957.86127
142.42619 -22.136967 947.54425
142.68582 -21.439135 948.32422
143.10481 -20.946543 948.17413
144.70421 -20.9879 943.22296
145.1321 -20.504791 943.07379
145.79185 -20.381876 941.04956
146.41118 -20.232887 939.01654
147.01447 -20.073551 936.97992
147.66722 -20.1511 933.0321
148.19495 -20.040604 930.021
148.55458 -19.998219 925.0614
149.56953 -20.381392 920.42029
150.72807 -20.902416 915.01404
151.15897 -20.666496 912.90918
151.51535 -20.318918 911.6499
151.79701 -20.008133 909.43799
152.11134 -19.728491 907.23065
152.45584 -19.408117 905.93628
152.84987 -19.199305 903.75427
153.19682 -18.899181 902.43573
153.5807 -18.710997 900.21606
154.03741 -18.568995 898.01385
154.5387 -18.468388 895.79803
154.95068 -18.353733 893.46436
155.31587 -18.252556 890.99091
155.94151 -18.362223 887.83716
156.76192 -18.46838 885.7829
158.48026 -18.884012 883.36151
160.32985 -19.101551 881.71539
161.54225 -19.084408 880.81915
162.47362 -19.02623 880.15637
163.40929 -18.967615 879.52673
164.34573 -18.890434 878.9455
165.07567 -18.827227 878.58588
165.81567 -18.786831 878.19849
166.58044 -18.754684 877.81
167.37328 -18.739868 877.45306
168.01529 -18.789364 877.22974
168.85062 -18.784248 876.88861
169.70613 -18.791817 876.55597
170.57944 -18.807999 876.23108
171.46815 -18.834518 875.91266
172.37082 -18.871675 875.5979
173.29604 -18.912804 875.31696
174.23396 -18.957245 875.05676
175.23407 -18.838675 874.77142
176.1792 -18.877611 874.54565
177.14539 -18.907593 874.38971
178.11371 -18.943333 874.21844
179.09354 -18.97398 874.08698
180.1116 -19.166941 874.14703
181.15613 -19.359131 874.24878
182.17789 -19.373188 874.2486
183.2112 -19.374704 874.30261
184.24416 -19.369276 874.37939
185.27802 -19.356058 874.47876
186.30792 -19.339197 874.58868
187.34291 -19.320704 874.70306
188.37259 -19.30295 874.80688
189.30482 -19.098896 874.72375
190.32758 -19.079401 874.8255
191.34541 -19.066265 874.90503
192.3644 -19.049458 874.99188
193.37805 -19.033251 875.07361
194.39085 -19.025623 875.12262
195.40132 -19.021109 875.14813
196.41078 -19.010384 875.19623
197.41872 -19.010485 875.20605
198.42557 -19.007231 875.21918
199.4314 -19.014351 875.19373
200.4373 -19.019354 875.17395
201.44283 -19.034609 875.1098
202.45055 -19.052828 875.03265
203.45923 -19.071741 874.95514
204.71582 -19.30928 875.00427
205.49088 -19.119093 874.75983
206.78592 -19.380003 874.73682
207.533 -19.174479 874.52209
208.55377 -19.202736 874.41858
209.57858 -19.23106 874.30927
210.61531 -19.264 874.20062
211.64378 -19.286911 874.12109
212.66974 -19.312405 874.07434
213.33884 -19.076012 873.9649
214.35094 -19.088459 873.93982
215.36501 -19.08847 873.94086
216.37573 -19.088915 873.94824
217.80647 -19.333431 874.05811
218.3913 -19.072548 874.01355
219.38622 -19.040987 874.12506
219.93201 -18.748289 874.12616
220.90161 -18.716278 874.24133
221.85779 -18.675917 874.38934
223.27303 -18.872252 874.75085
223.73148 -18.571449 874.77899
224.63225 -18.501188 875.04828
225.52159 -18.427032 875.34241
226.37013 -18.339584 875.71442
227.6828 -18.461624 876.38788
228.98616 -18.555149 877.14136
229.76155 -18.450085 877.61084
231.0056 -18.523037 878.4978
231.70274 -18.424973 879.03973
232.38361 -18.32349 879.57288
233.04364 -18.234833 880.12146
234.20407 -18.303986 881.06476
234.81725 -18.224968 881.60242
235.41917 -18.144581 882.14868
236.51247 -18.172993 883.17328
238.10611 -18.402922 884.50745
240.41469 -18.669157 886.50793
239.15083 -18.268387 885.50458
242.62134 -18.743677 888.64288
245.45894 -19.036989 891.69623
251.85381 -19.463543 904.22296
256.45883 -19.448326 911.64178
261.76254 -19.844824 927.88214
261.82706 -19.985872 928.05225
261.83194 -20.127108 928.23315
261.83356 -20.334227 929.48053
261.87186 -20.461391 929.69458
132.45537 -20.809145 977.39264
133.43571 -20.793568 976.39612
134.30733 -20.706667 975.36707
135.0714 -20.548115 974.30493
135.47086 -20.057245 974.0993
136.15121 -19.835102 973.01434
136.76736 -19.569014 971.91125
137.13464 -19.049528 971.69464
137.94946 -19.073996 968.74231
138.43065 -18.709915 967.60925
139.09767 -18.635128 964.62354
139.72626 -18.456667 962.58325
140.50293 -18.471386 959.63867
142.80367 -20.267464 950.2818
143.77669 -20.460236 947.36182
144.19739 -19.967863 947.21167
145.21764 -20.297771 943.34167
145.64981 -19.817392 943.19342
146.3174 -19.702965 941.17242
146.85194 -19.396048 940.08325
147.46147 -19.243484 938.04877
148.0399 -19.071329 936.00739
148.74431 -19.292439 931.1203
149.073 -19.036469 928.0636
149.58197 -19.015688 924.1156
150.43146 -19.21855 920.33636
151.46513 -19.531509 916.67944
151.94789 -19.410671 913.6814
152.27014 -19.192102 910.59161
152.65677 -18.869574 909.33777
153.02313 -18.626724 907.16144
153.43047 -18.416794 904.99969
153.82695 -18.133675 903.72351
154.17854 -17.914455 901.50879
154.62225 -17.759169 899.32281
155.10403 -17.633219 897.13806
155.56129 -17.513832 894.90222
155.91417 -17.292423 893.42236
156.19547 -16.859056 893.73901
156.81326 -17.268013 887.71558
157.59727 -17.369337 885.59692
159.94559 -18.026394 882.51868
161.13358 -18.075857 881.40692
162.32753 -18.089455 880.43915
163.27815 -18.040237 879.81494
164.20709 -17.994858 879.15045
165.14799 -17.91769 878.59064
165.87503 -17.866854 878.20099
166.62616 -17.820127 877.81885
167.39546 -17.79501 877.42627
168.18312 -17.774799 877.04254
168.99359 -17.759661 876.6828
169.83005 -17.755198 876.34271
170.6801 -17.752411 876.01636
171.54408 -17.761398 875.69312
172.42641 -17.775305 875.38501
173.41949 -17.689262 875.02008
174.31721 -17.70513 874.74982
175.2282 -17.726313 874.48578
176.19414 -17.606688 874.17352
177.07913 -17.791197 873.96777
178.02788 -17.826311 873.75671
178.99321 -17.855333 873.59454
179.98769 -18.056173 873.5672
180.98175 -18.081802 873.45898
181.98598 -18.096628 873.42822
183.04135 -18.281368 873.56268
184.06744 -18.287056 873.59625
185.09042 -18.274467 873.66437
186.11813 -18.265558 873.74438
187.14619 -18.258211 873.81842
188.17171 -18.245975 873.90924
189.19756 -18.231844 873.99817
190.12318 -18.030682 873.92444
191.13914 -18.020269 873.99487
192.15485 -18.00375 874.0849
193.166 -17.991976 874.1452
194.1799 -17.977863 874.21893
195.18976 -17.968527 874.27087
196.19788 -17.951468 874.34967
197.20589 -17.946169 874.37952
198.21176 -17.94063 874.40204
199.39636 -18.139824 874.57251
200.21942 -17.941677 874.401
201.42572 -18.147816 874.51703
202.43791 -18.161367 874.47308
203.45236 -18.176008 874.409
204.47714 -18.194506 874.32483
205.4967 -18.20859 874.26416
206.25923 -18.020502 874.05078
207.54857 -18.26437 874.0542
208.28575 -18.066401 873.86438
209.60608 -18.314749 873.87811
210.31747 -18.106888 873.72656
211.34494 -18.132381 873.64172
212.36528 -18.141134 873.62103
213.3812 -18.150402 873.61023
214.39931 -18.150681 873.61237
215.02863 -17.894941 873.58215
216.4212 -18.139042 873.68231
217.42551 -18.119246 873.7616
218.42726 -18.095695 873.85254
218.9873 -17.822443 873.86188
219.95638 -17.784245 874.00781
220.91016 -17.735144 874.19696
221.84747 -17.678127 874.4198
222.78065 -17.620073 874.63934
223.69595 -17.554983 874.89398
224.58685 -17.480902 875.1936
225.4465 -17.399857 875.54712
226.29118 -17.312174 875.93298
227.56049 -17.419842 876.67084
228.8524 -17.51158 877.44501
229.60448 -17.409616 877.94147
230.80873 -17.475998 878.87482
231.50455 -17.386061 879.40143
232.69264 -17.455145 880.34601
233.34325 -17.360035 880.89294
234.47237 -17.436172 881.90442
235.07378 -17.354755 882.46844
236.17216 -17.434532 883.47083
239.02368 -17.78702 885.89935
240.16487 -17.806688 886.94342
244.35692 -18.126205 891.19043
246.55432 -18.188959 893.87634
248.2368 -18.256187 897.01501
251.63939 -18.3948 904.92719
255.75078 -18.298943 911.51038
261.49274 -18.639378 927.73199
261.55878 -18.872381 928.96442
261.58478 -19.036854 929.14349
261.56375 -19.2757 930.39355
261.67712 -19.356379 929.52936
261.67877 -19.526262 929.7561
133.76079 -19.903866 976.492
134.67102 -19.84655 975.47546
135.0717 -19.358442 975.26807
135.86163 -19.216736 974.21448
136.26286 -18.725332 974.00647
136.95679 -18.513567 972.92529
137.59059 -18.25983 971.82678
137.97551 -17.751486 971.6142
138.36198 -17.242619 971.40173
139.38261 -17.577103 966.60608
140.09175 -17.539701 963.63568
140.97595 -17.724237 959.75531
142.67436 -18.811983 953.15118
144.2674 -19.749466 947.47327
144.69249 -19.260201 947.3244
145.59251 -19.410299 944.3916
146.16232 -19.12689 943.31195
146.83568 -19.020025 941.2937
147.37343 -18.716724 940.20605
147.80647 -18.235323 940.05579
148.435 -18.101036 938.02594
149.07268 -18.078423 935.03741
149.70703 -18.158281 931.09259
150.09895 -17.955437 928.05249
150.42397 -17.722509 924.97687
151.27188 -18.039442 920.24353
152.23012 -18.318117 916.54059
152.72098 -18.292141 912.63379
153.08553 -18.021786 910.46741
153.50322 -17.802353 908.32666
153.96289 -17.617922 906.20477
154.38843 -17.421009 904.05615
154.76878 -17.209005 901.87317
155.23866 -17.055771 899.73047
155.72603 -16.925276 897.58289
156.15076 -16.696569 896.25525
156.48802 -16.353085 895.74158
156.8844 -16.233227 893.39587
157.19098 -16.110729 890.89337
157.82664 -16.315247 886.82458
158.93437 -16.573769 884.28497
161.01318 -17.058752 881.89331
162.43967 -17.155111 880.54663
163.36377 -17.117832 879.8609
164.28346 -17.076607 879.16705
164.99739 -17.00322 878.784
165.94334 -16.94688 878.21417
166.87029 -16.882065 877.62982
167.61705 -16.839249 877.24213
168.20108 -16.812084 877.02484
169.16322 -16.763338 876.4892
169.96355 -16.734468 876.12933
170.7832 -16.719744 875.77838
171.62271 -16.7152 875.43732
172.48723 -16.721035 875.11725
173.47682 -16.643635 874.75623
174.35564 -16.645983 874.47412
175.23259 -16.652248 874.17255
176.20761 -16.545029 873.88385
177.11424 -16.550835 873.65015
178.02507 -16.560846 873.41364
178.95392 -16.572868 873.2077
179.88268 -16.76226 873.04926
180.84691 -16.787176 872.89703
181.84482 -16.993773 872.81714
182.84027 -17.009159 872.76501
183.84189 -17.020802 872.73682
184.8532 -17.021759 872.75476
185.86612 -17.015118 872.80597
186.87732 -17.012581 872.83704
187.89304 -17.003334 872.90009
188.90724 -16.990076 872.98041
189.92087 -16.982616 873.03436
190.93594 -16.968967 873.11517
191.94722 -16.9568 873.19708
192.95947 -16.943199 873.27362
193.96864 -16.936749 873.31201
194.97964 -16.914728 873.41406
195.98622 -16.90115 873.48065
196.99347 -16.885118 873.55847
198.16838 -17.075912 873.73816
199.18083 -17.068996 873.77258
200.19257 -17.062916 873.79248
201.00273 -16.868124 873.64069
202.21602 -17.067722 873.75952
203.00351 -16.881256 873.58167
204.00485 -16.894457 873.52557
205.00656 -16.903307 873.48779
206.01025 -16.913578 873.43964
207.01402 -16.923527 873.39825
208.02116 -16.937725 873.33569
209.02858 -16.953373 873.27289
210.03792 -16.962381 873.23126
211.37878 -17.199295 873.27747
212.05917 -16.976019 873.19458
213.06471 -16.970154 873.22266
214.06593 -16.962009 873.27368
215.06473 -16.95085 873.32953
216.46107 -17.164776 873.47504
217.4593 -17.141899 873.59436
218.45198 -17.112343 873.73254
219.43558 -17.065083 873.91577
219.96144 -16.79327 873.98383
220.90117 -16.733385 874.23016
221.83113 -16.672794 874.48083
222.73604 -16.598568 874.79541
223.6256 -16.524429 875.10809
224.50394 -16.447939 875.43597
225.35419 -16.366119 875.80389
226.1777 -16.27713 876.22266
227.44044 -16.379 876.96686
228.69052 -16.462461 877.80603
229.43442 -16.368406 878.30548
230.61632 -16.442965 879.24017
231.81186 -16.510561 880.1745
232.96825 -16.559319 881.19629
233.58018 -16.495451 881.76685
235.26071 -16.654972 883.27661
235.84709 -16.631357 883.78149
238.74599 -16.892841 886.33966
244.37697 -17.077324 891.82318
246.94847 -16.914867 895.63593
248.4516 -17.036102 900.2536
250.43893 -17.15498 904.45074
253.41298 -17.106539 909.31598
256.86621 -17.064415 915.22302
260.74091 -17.333742 925.53937
261.3009 -17.733915 929.87054
261.3074 -17.991539 931.1051
261.1362 -18.283577 932.383
260.82086 -18.603312 933.72974
260.7822 -18.816727 933.93475
134.0992 -19.023996 976.59283
134.51984 -18.553034 976.39215
135.44508 -18.503601 975.37939
135.86284 -18.027237 975.1759
136.27815 -17.546228 974.96948
137.38135 -17.69993 973.05042
137.77328 -17.198172 972.83746
138.17921 -16.705988 972.62854
138.81665 -16.452297 971.5332
139.65358 -16.502851 968.59125
140.46191 -16.623304 964.69037
141.18782 -16.608858 961.7229
142.55956 -17.357401 956.02612
143.78571 -17.839218 952.19025
145.18837 -18.554117 947.43677
146.10178 -18.717768 944.50842
146.66998 -18.434004 943.42926
147.2299 -18.14703 942.349
147.78415 -17.855263 941.26508
148.32375 -17.554054 940.17816
148.86101 -17.251877 939.0896
149.46878 -17.106989 937.05585
150.0369 -16.934725 935.01282
150.61618 -16.878513 932.01221
151.18784 -16.717344 929.96942
151.41994 -16.525179 925.90515
152.08858 -15.926756 928.67041
152.86546 -16.837378 918.17584
153.57838 -17.056381 913.44507
153.95215 -16.881712 910.37347
154.42833 -16.786211 907.36035
154.93048 -16.628471 905.26495
155.38417 -16.528011 902.23901
155.83038 -16.35556 900.10419
156.28667 -16.11911 898.85229
156.71413 -15.878539 897.56018
157.12912 -15.644057 896.2326
157.52028 -15.415224 894.85266
157.84534 -15.35726 891.51904
158.11798 -15.130095 889.8764
159.24443 -15.632742 884.71741
160.57718 -15.895185 882.72308
162.08307 -16.096014 881.30084
163.23419 -16.138433 880.22931
164.16287 -16.107843 879.53845
165.07872 -16.06822 878.84839
166.01443 -16.023291 878.25299
166.73151 -15.953163 877.84918
167.66525 -15.915379 877.21625
168.41331 -15.868031 876.81915
169.18378 -15.814479 876.45227
169.96593 -15.783342 876.06702
170.77145 -15.764597 875.67816
171.59846 -15.754381 875.31012
172.57098 -15.691893 874.87183
173.52541 -15.608428 874.4538
174.37598 -15.605539 874.14575
175.2581 -15.603806 873.86884
176.22168 -15.508218 873.55341
177.11234 -15.504968 873.31006
178.01378 -15.505461 873.07684
178.89107 -15.644372 872.89697
179.81795 -15.666529 872.66547
180.77214 -15.683636 872.51154
181.7253 -15.704997 872.34033
182.71106 -15.901532 872.22174
183.69423 -15.925536 872.10291
184.69473 -15.932365 872.08478
185.69379 -15.94059 872.05969
186.77213 -16.114866 872.20874
187.78731 -16.119101 872.22473
188.80574 -16.111639 872.28735
189.82343 -16.10527 872.33588
190.84531 -16.095823 872.414
191.86086 -16.080065 872.49219
192.87553 -16.07427 872.54193
193.89867 -16.066021 872.62659
194.9144 -16.047918 872.71808
195.92715 -16.034679 872.79272
196.94241 -16.018965 872.87579
197.95325 -16.007607 872.93768
198.96648 -16.001993 872.97772
199.78357 -15.799477 872.87952
200.78169 -15.795164 872.90088
201.77855 -15.796637 872.89465
202.7755 -15.795164 872.90295
203.77153 -15.804381 872.86115
204.76871 -15.804586 872.85883
205.76617 -15.80664 872.84882
206.76443 -15.815752 872.80859
207.76308 -15.814885 872.81158
209.05232 -16.026146 872.88147
209.75909 -15.81876 872.79559
211.07227 -16.033802 872.87927
212.08496 -16.029804 872.89978
213.09637 -16.023489 872.94019
214.09793 -16.005587 873.03052
215.09694 -15.980939 873.13385
216.48737 -16.160746 873.36566
217.47813 -16.121284 873.54175
218.46588 -16.09226 873.70892
219.0047 -15.841215 873.78339
219.94756 -15.781763 874.0473
220.87595 -15.718714 874.3291
221.79309 -15.652843 874.62329
222.67337 -15.572483 875.00018
224.01462 -15.684225 875.6015
224.87257 -15.602407 875.98975
225.23773 -15.327799 876.13702
226.04562 -15.237071 876.57397
227.27925 -15.336624 877.34692
228.49872 -15.420664 878.21375
229.68997 -15.496587 879.12201
230.8847 -15.567094 880.07263
232.06166 -15.606054 881.0741
233.22127 -15.664306 882.08795
237.44084 -16.018763 885.6228
239.34285 -16.040024 887.27197
242.60461 -15.86998 890.27844
245.28363 -15.598693 894.02106
247.05853 -15.6583 898.53778
248.5759 -15.908855 903.12799
250.26234 -16.022528 906.32629
254.54138 -15.824533 912.98779
257.18341 -15.880592 918.25635
259.88055 -16.089502 924.40375
260.90527 -16.51771 929.73334
260.80112 -16.982014 933.11462
260.5939 -17.30547 934.4129
260.46271 -17.574835 934.68011
260.71262 -17.65699 933.80121
260.66666 -17.901979 934.04108
136.64951 -16.691067 975.07977
137.47502 -16.573618 974.03662
137.88062 -16.081656 973.82501
138.29857 -15.597875 973.6178
139.00992 -15.398358 972.54437
139.86266 -15.378584 970.55811
140.7562 -15.560453 966.68042
141.56752 -15.700552 962.77698
142.35646 -15.743476 959.82471
143.63835 -16.35396 955.05768
145.10619 -17.125689 950.31232
146.28307 -17.584976 946.47668
146.71439 -17.09894 946.32904
147.60657 -17.25873 943.39899
148.03958 -16.774797 943.25018
148.60587 -16.491869 942.16882
149.15781 -16.200195 941.08441
149.70624 -15.906714 939.99817
150.3373 -15.781754 937.96936
150.92522 -15.626683 935.9303
151.48615 -15.453774 933.8855
152.07953 -15.418287 930.88904
152.6167 -15.357933 927.86346
152.76634 -15.024076 924.68762
153.76567 -15.787946 917.18732
154.33069 -15.835553 913.29657
154.8387 -15.841322 909.38599
155.44484 -15.907511 905.54584
155.8931 -15.718646 903.42426
156.41975 -15.663517 900.46094
156.8763 -15.419511 899.22815
157.32231 -15.177834 897.97131
157.77028 -14.950168 896.69403
158.17766 -14.71671 895.35968
158.52014 -14.550969 893.02673
158.78024 -14.371492 890.54645
159.19284 -14.361279 887.25067
159.8766 -14.384242 885.1272
161.66396 -14.948142 882.08295
162.86987 -15.054456 880.97034
164.02118 -15.117911 879.89136
164.9355 -15.098985 879.15454
165.86383 -15.063611 878.49506
167.00005 -15.050259 877.66803
167.71748 -14.97918 877.23962
168.45621 -14.91293 876.85339
169.37135 -14.843787 876.29858
170.13809 -14.804173 875.90485
170.9194 -14.776665 875.49213
171.86554 -14.714734 874.99976
172.67624 -14.683639 874.63733
173.60684 -14.605566 874.19916
174.43692 -14.587445 873.87427
175.2912 -14.577272 873.56372
176.25887 -14.487515 873.24432
177.10822 -14.472006 872.94073
177.98878 -14.46791 872.68103
178.88597 -14.468261 872.44427
179.76328 -14.471735 872.15308
180.69479 -14.616938 872.07007
181.62642 -14.635275 871.85425
182.5977 -14.797991 871.73517
183.5676 -14.822097 871.58527
184.53836 -14.852294 871.41821
185.52867 -14.863785 871.36432
186.52634 -14.869197 871.34894
187.60634 -15.041606 871.47528
188.61887 -15.044974 871.48352
189.72607 -15.212363 871.6333
190.75172 -15.209116 871.69269
191.77007 -15.200746 871.76025
192.79436 -15.19064 871.84167
193.81857 -15.180247 871.91565
194.84491 -15.173236 871.99237
195.71745 -14.987292 871.92212
196.72818 -14.969976 872.02527
197.74008 -14.950702 872.12744
198.74985 -14.939854 872.18542
199.56511 -14.738586 872.1131
200.55998 -14.730805 872.1496
201.55457 -14.722378 872.19098
202.32561 -14.515484 872.07465
203.31067 -14.509695 872.10968
204.29637 -14.500544 872.14252
205.28038 -14.500549 872.13971
206.26395 -14.494366 872.16437
207.50925 -14.700001 872.29199
208.49921 -14.691696 872.32513
209.48703 -14.683184 872.36792
210.78114 -14.884809 872.47992
211.77666 -14.873516 872.54279
212.77391 -14.858891 872.6145
214.12448 -15.026067 872.85626
215.11803 -14.997702 873.00232
216.50005 -15.145358 873.30255
217.48341 -15.091329 873.55426
218.45663 -15.043557 873.80206
219.41812 -14.990318 874.08154
220.36487 -14.938171 874.35651
221.27763 -14.863298 874.73438
222.17746 -14.793615 875.09705
223.04787 -14.714869 875.51544
223.90501 -14.637826 875.9259
224.73639 -14.558072 876.36279
225.54234 -14.475684 876.81482
226.78889 -14.561119 877.62091
228.04796 -14.618152 878.47614
229.26688 -14.672751 879.42065
229.95805 -14.602239 879.98248
231.14061 -14.66121 880.95984
234.71364 -14.967105 883.81006
236.60609 -14.984326 885.40808
239.30667 -14.875332 887.55536
242.87889 -14.432411 891.71002
245.01117 -14.365595 895.9455
248.45952 -14.556286 905.55884
249.81628 -14.670643 907.79486
251.2361 -14.765786 909.99329
254.48134 -14.635716 914.8775
255.28734 -14.807514 916.1369
259.76791 -14.918107 926.30347
260.54352 -15.352445 930.63391
260.444 -15.85183 934.03741
260.32025 -16.193893 935.33923
259.69495 -16.766506 937.82361
268.27719 -16.871481 959.41083
137.02698 -15.840685 975.19208
137.86401 -15.733622 974.1535
138.28609 -15.253029 973.94653
138.69568 -14.762327 973.73602
139.11832 -14.279172 973.5296
140.11719 -14.366446 971.58539
141.01898 -14.472581 968.66455
141.85397 -14.629906 964.76807
142.56761 -14.620078 961.79407
143.55949 -14.916681 957.9314
144.94505 -15.624773 953.17456
146.22342 -16.167786 949.35565
147.20897 -16.394531 946.44183
147.96565 -16.354982 944.44513
148.54431 -16.081133 943.3678
148.97552 -15.595775 943.21808
149.53946 -15.312289 942.13666
150.09975 -15.027966 941.05353
150.65627 -14.741776 939.96912
151.18372 -14.434027 938.87653
151.80579 -14.307101 936.84528
152.37941 -14.147288 934.80347
152.94394 -13.983751 932.76105
153.62933 -14.262717 927.8548
153.7025 -14.199456 921.79016
154.70732 -15.0466 913.47955
155.1566 -14.836984 911.36072
155.87674 -14.984454 907.57574
156.42419 -14.927146 904.61322
156.91066 -14.768148 902.52185
157.37564 -14.520247 901.30475
157.81944 -14.267356 900.06342
158.25043 -14.017057 898.79877
158.68172 -13.778816 897.51703
159.15874 -13.666468 895.33197
159.47444 -13.485735 892.97571
159.70952 -13.284362 890.47028
160.05432 -13.255511 887.07574
160.71341 -13.275112 884.90393
162.15147 -13.721464 882.12665
163.63751 -14.001896 880.60571
164.84262 -14.082722 879.6261
165.73956 -14.068954 878.8479
166.67378 -14.040261 878.19653
167.78455 -14.038681 877.2973
168.50121 -13.984508 876.84326
169.24715 -13.917122 876.45392
170.33575 -13.859189 875.72351
171.09357 -13.817174 875.31024
171.87155 -13.771601 874.91602
172.78162 -13.699438 874.41467
173.59018 -13.669959 874.04419
174.51785 -13.583895 873.6098
175.34552 -13.55995 873.28088
176.19415 -13.546247 872.96729
177.12753 -13.450449 872.60382
177.96281 -13.438423 872.27509
178.81241 -13.539132 872.10266
179.70541 -13.552303 871.83386
180.60823 -13.566112 871.57227
181.53294 -13.579839 871.3512
182.49234 -13.721714 871.25037
183.44591 -13.743199 871.06158
184.40585 -13.767548 870.87799
185.37936 -13.786103 870.7489
186.42665 -13.954302 870.74969
187.42615 -13.968669 870.71161
188.43153 -13.979335 870.68848
189.53589 -14.14152 870.82159
190.6516 -14.30379 870.98535
191.67863 -14.304209 871.03107
192.59158 -14.1297 870.99109
193.7394 -14.291088 871.17004
194.77458 -14.279639 871.2533
195.65825 -14.101282 871.23981
196.51874 -13.911103 871.21069
197.52704 -13.897182 871.30432
198.53374 -13.880379 871.39679
199.34625 -13.682647 871.35107
200.33893 -13.669636 871.41241
201.33018 -13.65624 871.47845
202.09863 -13.451728 871.37842
203.30768 -13.633561 871.58862
204.05998 -13.424232 871.51392
205.04161 -13.408018 871.5943
206.01942 -13.399735 871.62567
207.25752 -13.58968 871.80261
208.24007 -13.577688 871.85406
209.22244 -13.559865 871.91943
210.49364 -13.743364 872.11877
211.7979 -13.907822 872.33362
212.79297 -13.888845 872.43823
213.77846 -13.855379 872.61572
215.12476 -13.985838 872.96704
216.50839 -14.099543 873.3443
217.91203 -14.165156 873.86597
218.87982 -14.108447 874.19299
219.38377 -13.942585 874.2569
220.30873 -13.881675 874.60114
221.65901 -13.924592 875.34607
222.53133 -13.862055 875.77783
223.37875 -13.796643 876.23254
224.20422 -13.733403 876.69598
225.49506 -13.781346 877.53406
225.8138 -13.605052 877.59277
227.06712 -13.657583 878.45953
228.30231 -13.708682 879.37
230.06374 -13.837845 880.77649
231.91614 -13.920413 882.17969
233.79642 -13.950859 883.67896
236.51247 -13.84673 885.68005
239.13847 -13.583184 888.02185
243.43636 -13.082328 895.49927
244.76247 -13.26958 899.12305
246.75772 -13.541456 904.70099
248.83585 -13.641564 908.90912
249.8446 -13.760635 910.12549
251.44113 -13.803077 912.20978
252.91162 -13.884804 914.32642
256.36487 -13.816136 920.35309
259.73904 -13.999098 928.40973
260.08807 -14.70084 934.94458
259.73141 -15.221758 937.38739
267.35431 -15.572512 959.33264
269.16003 -15.67709 961.50165
270.76981 -15.667645 962.50507
138.67679 -14.4147 974.06396
139.94681 -12.963157 973.44458
141.20195 -13.322998 970.6217
142.15002 -13.562923 966.75977
142.95384 -13.712934 962.85291
143.73106 -13.759962 959.89465
144.63574 -13.909623 956.96539
146.27806 -14.925632 951.2981
147.33298 -15.208257 948.39771
148.30511 -15.434372 945.4848
148.8932 -15.167161 944.41077
149.32513 -14.680845 944.2619
149.90991 -14.413862 943.18567
150.33804 -13.922809 943.03424
150.91939 -13.654757 941.95569
151.4792 -13.37146 940.87146
152.0368 -13.085817 939.78522
152.57108 -12.784746 938.69354
153.19456 -12.663969 936.66217
153.90343 -12.837965 932.73529
154.43924 -13.351225 924.91003
154.7692 -12.93857 923.69458
155.52673 -13.769266 914.28033
156.0981 -13.830621 910.40021
156.84317 -13.994394 906.63281
157.34981 -13.839197 904.55121
157.83603 -13.597446 903.35309
158.30313 -13.35007 902.13678
158.76959 -13.110255 900.91046
159.18558 -12.850904 899.64001
159.68973 -12.739091 897.5108
160.11517 -12.508132 896.19147
160.46959 -12.33866 893.86298
160.62067 -12.18673 890.36652
160.89531 -12.025388 887.77502
161.39102 -11.995908 885.35785
162.68112 -12.451114 882.28101
164.15318 -12.81516 880.5708
165.37502 -12.95771 879.51465
166.5282 -13.040059 878.49658
167.67163 -13.067015 877.63214
168.37727 -12.995882 877.15234
169.29509 -12.96413 876.49762
170.21164 -12.93652 875.87268
171.12413 -12.879152 875.28668
171.88678 -12.835035 874.85272
172.77933 -12.752751 874.32556
173.70784 -12.696321 873.82782
174.51102 -12.662043 873.46521
175.32278 -12.63111 873.09583
176.25571 -12.559754 872.69946
177.09518 -12.534587 872.37537
177.92148 -12.516009 872.02539
178.76965 -12.508885 871.68359
179.65016 -12.51493 871.38898
180.53438 -12.523438 871.09766
181.42183 -12.534941 870.77911
182.38232 -12.667739 870.71826
183.31805 -12.689082 870.47839
184.3194 -12.82381 870.42511
185.28381 -12.856137 870.21222
186.26123 -12.881201 870.0603
187.32516 -13.033463 870.10394
188.33444 -13.054062 870.05402
189.34254 -13.067133 870.0321
190.45462 -13.216632 870.17249
191.47678 -13.227764 870.19855
192.50446 -13.224875 870.26147
193.53612 -13.215965 870.34814
194.5629 -13.206041 870.42255
195.4478 -13.035625 870.42285
196.46463 -13.021685 870.52466
197.48172 -13.005995 870.63385
198.31758 -12.826306 870.61072
199.12831 -12.634682 870.58844
200.11691 -12.615007 870.67908
201.10411 -12.596336 870.77765
201.86998 -12.390449 870.72827
202.84981 -12.369901 870.82904
203.82883 -12.349017 870.9043
204.79959 -12.328365 871.00122
205.7796 -12.302511 871.12225
207.00607 -12.487615 871.323
207.9819 -12.466937 871.42389
208.95885 -12.440516 871.50421
210.21167 -12.614719 871.75677
211.49457 -12.767077 872.02802
212.47197 -12.73664 872.19537
213.79239 -12.872442 872.50525
215.13379 -12.973022 872.94702
216.50232 -13.05203 873.43994
217.89888 -13.097669 874.02271
218.85023 -13.045972 874.38013
219.78345 -12.985847 874.78809
220.6804 -12.921184 875.25146
221.56294 -12.869665 875.67114
222.92253 -12.909781 876.40051
223.73463 -12.850829 876.94513
224.53619 -12.799258 877.44714
225.31641 -12.751525 877.95282
226.58125 -12.78914 878.84595
227.84743 -12.821888 879.75793
229.6843 -12.900348 881.12726
231.58066 -12.927227 882.55688
234.3494 -12.764569 884.40625
236.35796 -12.571912 886.08453
239.68007 -12.177262 890.45294
241.88579 -12.059175 894.6272
243.81754 -12.248187 900.27533
245.38605 -12.543245 904.86304
246.58784 -12.739561 907.17737
247.82829 -12.893462 909.41553
249.35391 -12.952125 911.50366
251.56548 -12.899192 914.43079
253.49503 -12.924747 917.52277
256.68555 -12.824522 922.43652
259.68964 -13.171227 931.58411
259.48111 -14.06559 938.29431
266.21896 -14.463967 958.37115
269.68777 -14.010115 961.91449
270.211 -14.321317 962.23993
141.12888 -11.984657 972.5097
142.39761 -12.454756 968.74231
143.23505 -12.631236 964.84448
143.96399 -12.645182 961.87189
144.77934 -12.727968 958.92261
145.9066 -13.152148 955.07922
147.39771 -13.970597 950.34186
148.44127 -14.252308 947.4408
149.05307 -14.005239 946.37292
149.65552 -13.749591 945.3009
150.08551 -13.258966 945.15118
150.68217 -13.001328 944.07739
151.27515 -12.741735 943.00171
151.85669 -12.474945 941.92291
152.29047 -11.986431 941.77063
152.85249 -11.704065 940.68408
153.51971 -11.616838 938.66254
154.22626 -11.678562 935.69269
154.97871 -12.125213 929.86121
155.35184 -12.300755 923.91479
155.88539 -12.973275 914.44849
156.63692 -13.236791 909.76074
157.29901 -13.254333 906.86212
157.66716 -12.656955 908.32599
158.19176 -12.52062 906.24658
158.69968 -12.289086 905.05914
159.20193 -12.060966 903.862
159.6644 -11.815365 902.63275
160.16165 -11.696095 900.51019
160.67232 -11.591857 898.38098
161.07541 -11.335962 897.05072
161.40236 -11.237546 893.79297
161.56557 -10.995191 891.18823
161.74214 -10.79015 888.47015
162.25848 -10.869433 885.16406
163.5045 -11.33909 882.00409
165.22575 -11.876838 879.95691
166.16083 -11.898921 879.15601
167.34065 -12.001572 878.18677
168.24477 -11.997443 877.42419
169.16476 -11.979903 876.74603
170.26361 -11.993037 875.90448
170.99709 -11.922645 875.45374
171.90515 -11.886428 874.83478
172.80319 -11.823501 874.26874
173.70834 -11.756424 873.7373
174.49709 -11.728743 873.33484
175.30627 -11.698125 872.95355
176.12248 -11.669559 872.56909
177.04617 -11.601357 872.13678
177.88353 -11.590881 871.79083
178.73347 -11.584742 871.45233
179.595 -11.584533 871.10516
180.481 -11.595465 870.79974
181.36896 -11.609272 870.4762
182.30074 -11.721547 870.32013
183.23112 -11.746938 870.03516
184.17662 -11.771949 869.79352
185.18819 -11.903801 869.71619
186.16321 -11.937435 869.5025
187.15123 -11.964654 869.36786
188.14897 -11.981635 869.29633
189.24402 -12.119778 869.38599
190.35913 -12.266476 869.48743
191.38249 -12.275069 869.52258
192.4147 -12.28523 869.52301
193.45744 -12.27663 869.60968
194.49266 -12.274887 869.66528
195.38435 -12.13092 869.67609
196.25578 -11.969145 869.69159
197.26945 -11.956257 869.81201
198.28168 -11.938578 869.92834
199.10172 -11.755195 869.97107
200.09816 -11.734529 870.09296
201.09149 -11.713945 870.21045
201.86319 -11.519543 870.2099
202.84479 -11.498398 870.31116
203.59586 -11.283475 870.32648
204.5634 -11.254966 870.46045
205.53487 -11.225492 870.60815
206.75529 -11.388612 870.85999
207.72316 -11.367804 870.97351
208.69188 -11.33652 871.1225
209.93484 -11.498042 871.39429
211.19049 -11.631306 871.7749
212.15413 -11.597205 871.97443
213.44391 -11.7198 872.35712
215.12561 -11.941272 873.02509
216.48637 -12.005104 873.57178
217.86711 -12.026416 874.2301
218.80321 -11.976047 874.63647
219.71857 -11.928543 875.06134
220.59673 -11.873894 875.55206
221.94543 -11.90289 876.30994
222.78313 -11.860158 876.80688
224.08153 -11.873236 877.72711
224.86057 -11.84583 878.25079
226.1443 -11.866074 879.17468
226.86324 -11.847754 879.72809
229.35362 -11.900736 881.44678
231.43753 -11.813205 882.73694
234.17159 -11.481578 884.81329
237.01695 -11.119081 888.33337
238.90948 -11.046247 891.49969
240.94165 -11.01515 895.80762
242.25121 -11.244182 899.38116
244.02861 -11.580118 905.03625
245.14301 -11.813867 907.38208
246.40677 -11.975415 909.59949
247.31604 -12.148505 910.81586
250.03903 -11.9857 914.60779
252.16711 -11.944517 917.59766
254.33157 -11.90363 920.57294
257.76883 -11.811591 926.40802
259.50122 -12.507051 935.88306
265.45178 -13.133858 957.17896
259.50626 -13.883644 943.90924
142.53346 -11.263314 970.68726
143.41518 -11.378083 967.76062
144.23035 -11.550333 963.85791
144.86563 -11.405193 961.81866
145.84111 -11.710819 957.95465
147.23216 -12.446275 953.20349
148.30824 -12.755109 950.30426
149.15501 -12.790737 948.32178
149.96811 -12.802785 946.33563
150.3989 -12.310931 946.18634
150.83318 -11.821629 946.03772
151.44267 -11.574743 944.96613
152.04936 -11.325985 943.89307
152.64142 -11.067031 942.81573
153.07294 -10.573219 942.66138
153.79208 -10.525887 940.65094
154.46169 -10.444217 938.63013
155.37244 -11.017236 932.8335
156.03485 -11.294816 927.94104
156.40349 -11.243788 923.91559
157.67125 -12.295482 908.85175
158.11942 -11.915383 908.55493
158.5029 -11.40054 909.12793
159.06049 -11.289742 907.06226
159.56216 -11.05384 905.87128
160.114 -10.855062 904.70038
160.62363 -10.638528 903.49878
161.15042 -10.539334 901.39197
161.60921 -10.303199 900.13843
162.04625 -10.253519 897.00684
162.32103 -10.128814 893.69836
162.57556 -9.801383 892.11139
162.7742 -9.4740572 890.3468
163.13187 -9.7164326 884.99658
164.31938 -10.218522 881.71576
165.73021 -10.638242 879.89447
167.18433 -10.947507 878.52423
167.90508 -10.863433 878.04187
169.0304 -10.95853 877.02936
170.13965 -11.006709 876.14984
171.04294 -10.97781 875.48157
171.9481 -10.940191 874.85742
172.83682 -10.888733 874.24841
173.71944 -10.818084 873.68323
174.48991 -10.771446 873.2439
175.27979 -10.740517 872.81549
176.20804 -10.696574 872.33331
177.01431 -10.665493 871.94757
177.83179 -10.652951 871.55695
178.68671 -10.649363 871.2088
179.54506 -10.64741 870.85126
180.41975 -10.655206 870.50427
181.30623 -10.665357 870.16162
182.20947 -10.765399 869.90338
183.14568 -10.789241 869.62744
184.08371 -10.821273 869.323
185.0372 -10.852117 869.05017
186.01062 -10.87269 868.87866
187.04956 -11.014476 868.76996
188.04672 -11.034544 868.66406
189.14319 -11.160504 868.70477
190.15977 -11.172473 868.67706
191.18362 -11.183348 868.71002
192.22606 -11.196698 868.71765
193.37778 -11.314008 868.84363
194.28264 -11.201873 868.84045
195.31984 -11.191163 868.91626
196.20007 -11.057702 868.96893
197.05612 -10.913666 868.96625
198.06445 -10.89031 869.1366
198.88174 -10.717526 869.18018
199.87637 -10.689299 869.34723
200.86833 -10.661642 869.51501
201.63936 -10.466818 869.54785
202.61716 -10.437113 869.72144
203.36092 -10.22319 869.73401
204.32811 -10.190699 869.91724
205.29262 -10.154819 870.10535
206.50508 -10.300196 870.41644
207.46867 -10.263649 870.60059
208.70044 -10.411395 870.90955
209.65695 -10.376705 871.11401
210.90102 -10.516379 871.47058
212.15651 -10.627929 871.91211
213.43372 -10.724718 872.42249
214.74141 -10.807322 872.90436
216.05403 -10.859688 873.54529
217.38857 -10.901114 874.19244
218.73389 -10.912941 874.95355
220.09763 -10.91392 875.7334
220.96922 -10.88453 876.22052
221.81369 -10.860952 876.7113
223.13425 -10.868702 877.58795
223.90309 -10.853167 878.15436
225.19006 -10.869152 879.07721
226.465 -10.88238 880.04187
227.7776 -10.891932 880.95081
230.60388 -10.702704 882.51782
233.19493 -10.379629 884.75226
235.34535 -10.199411 887.64484
237.64076 -10.038798 891.70392
239.94386 -10.011347 897.02191
241.22749 -10.289449 900.5993
242.34348 -10.638824 904.23395
244.01143 -10.91365 908.5921
245.82884 -10.972529 911.65906
246.3228 -11.209593 911.92566
250.2355 -10.789905 917.49335
251.8653 -10.815175 919.56531
254.86243 -10.60719 923.39056
257.33215 -10.701049 928.34601
258.66418 -11.044052 932.57513
259.14856 -11.859019 939.21692
259.80075 -12.444889 943.65698
259.9436 -13.010455 946.13007
142.39444 -9.870348 972.55359
143.60078 -10.219346 969.72021
144.41731 -10.296623 966.77533
145.12642 -10.303265 963.79895
146.02216 -10.550461 959.91949
146.91872 -10.709329 956.98914
148.15593 -11.236179 953.16711
149.22406 -11.543979 950.26776
150.06467 -11.580315 948.28516
150.69356 -11.346568 947.21771
151.12871 -10.857273 947.06921
151.56244 -10.366634 946.91956
152.36778 -10.379991 944.93018
152.97649 -10.133451 943.85693
153.56216 -9.8702459 942.77728
154.15135 -9.6119804 941.69855
154.85657 -9.5590649 939.68665
155.59315 -9.6529293 936.7251
156.37811 -10.025414 931.86096
156.80849 -9.5386591 931.70599
157.33331 -9.4848061 928.70062
157.92929 -9.6354465 924.67798
158.47192 -11.02496 909.63153
158.93645 -10.649876 909.34729
159.31509 -10.112514 909.92157
159.91887 -10.04019 907.87726
160.45668 -9.8271446 906.70526
161.0341 -9.6439981 905.5473
161.64954 -9.5975208 903.49762
162.12517 -9.3641787 902.27014
162.62411 -9.249011 900.13141
163.00127 -9.1594706 896.95148
163.30698 -8.8286448 895.49432
163.42276 -8.7569313 891.00647
163.55411 -8.7421188 886.41553
164.08257 -8.7443905 883.98596
165.12596 -9.0830441 881.42706
166.82193 -9.7222738 879.29034
167.76988 -9.7675972 878.47449
168.91093 -9.9068146 877.40747
169.84125 -9.9175148 876.68024
170.93423 -9.9862461 875.74811
171.82822 -9.963932 875.05273
172.87137 -9.9450264 874.26117
173.74545 -9.8822021 873.65521
174.50305 -9.8373528 873.19177
175.28561 -9.7992678 872.74017
176.07401 -9.7726631 872.28851
176.88947 -9.7529249 871.86176
177.78795 -9.7033253 871.34729
178.63799 -9.701334 870.97583
179.48735 -9.6952057 870.5871
180.34885 -9.6977673 870.19434
181.23483 -9.7074986 869.83362
182.1304 -9.7917976 869.56317
183.06369 -9.8145599 869.26562
183.99873 -9.8473406 868.92188
184.94875 -9.8834877 868.60303
185.9153 -9.9146967 868.35364
186.89386 -9.9415779 868.16754
187.94812 -10.059945 868.0675
189.03877 -10.188668 868.03241
190.06252 -10.209091 867.9801
191.08719 -10.207147 867.9928
192.14027 -10.214253 868.00195
193.17618 -10.208451 868.03027
194.21594 -10.224383 868.09216
195.10918 -10.132371 868.12018
195.98828 -10.010113 868.14258
197.01247 -9.9960976 868.27795
198.02917 -9.9773064 868.4574
198.85381 -9.8184938 868.55029
199.65459 -9.6494188 868.6134
200.64482 -9.61695 868.81158
201.41167 -9.424839 868.87811
202.39156 -9.3836193 869.10504
203.36095 -9.3457861 869.28699
204.3269 -9.3086472 869.49164
205.29471 -9.2655258 869.72931
206.51007 -9.3914223 870.10498
207.47757 -9.3412189 870.38489
208.69835 -9.4882908 870.73578
209.65791 -9.4395933 870.95911
210.9003 -9.5589781 871.39551
212.14967 -9.6524467 871.93286
213.42375 -9.7276707 872.49072
214.71819 -9.7930307 873.05621
216.01637 -9.8334293 873.75281
217.32559 -9.8544893 874.52087
218.65128 -9.8631315 875.3092
219.99927 -9.8623219 876.10596
220.84715 -9.852356 876.6098
222.16733 -9.8544559 877.48712
222.95515 -9.8553514 878.02838
224.24762 -9.8646708 878.95032
226.15369 -9.824461 880.25116
227.54077 -9.7971487 881.12415
229.66389 -9.6178808 882.42767
232.20068 -9.2923546 884.73993
234.22664 -9.1370535 887.742
236.34311 -9.040473 891.93903
238.59389 -9.0738783 897.26337
240.15045 -9.3634243 901.84192
241.25319 -9.7471905 905.45184
243.29475 -9.9782696 910.72522
246.94756 -9.6242085 916.38086
248.16084 -9.6932335 917.45544
249.87587 -9.6699781 919.50598
252.98898 -9.3755989 923.29816
255.88812 -9.3274851 928.10974
257.57858 -9.5712023 932.24023
258.50012 -9.9388227 935.51038
259.50754 -10.620994 942.03955
261.57745 -11.085885 949.38141
260.60764 -11.493805 946.75232
267.79163 -11.267726 962.40356
143.54051 -8.8790245 971.60901
144.63808 -9.159462 968.74695
145.30019 -9.0359106 966.70966
146.13977 -9.2413597 962.81995
147.08914 -9.5370989 958.95319
148.02432 -9.7324409 956.03009
149.07486 -10.022806 953.12878
149.93655 -10.071075 951.14856
150.78839 -10.116222 949.16791
151.42607 -9.8914299 948.10181
152.05481 -9.6603098 947.03406
152.68094 -9.4274683 945.96552
153.29367 -9.1856337 944.89374
153.89243 -8.9330492 943.81738
154.49077 -8.6812553 942.74091
155.07465 -8.4198036 941.66077
155.90218 -8.583499 938.71967
156.68188 -8.8364878 934.81091
157.26387 -8.7042103 932.77563
157.89183 -8.9750357 927.87762
158.42418 -8.9445324 924.84357
158.86684 -8.4835396 924.64673
159.04309 -9.3744659 912.12787
159.33063 -8.6424913 913.5965
160.25844 -9.0108109 909.8739
160.84206 -8.9306669 907.82031
161.4324 -8.7518253 906.67645
162.05188 -8.5946379 905.54144
162.64354 -8.5348301 903.47961
163.21535 -8.4663315 901.39874
163.63606 -8.4002409 898.29529
163.90862 -8.1435366 895.9502
164.1918 -7.7963648 894.4588
164.24001 -7.7002234 889.87323
164.4688 -7.3723168 888.06836
164.94096 -7.5875058 883.7699
166.3894 -8.3451834 880.18127
167.61589 -8.6301174 878.9411
168.57851 -8.6932659 878.12396
169.93523 -8.9542341 876.84216
171.00641 -9.0291023 875.84778
171.88899 -9.0156603 875.12115
172.77531 -8.9896507 874.43402
173.64777 -8.9379492 873.80505
174.39397 -8.8861389 873.29663
175.28374 -8.8503494 872.67664
176.06578 -8.8153324 872.1972
176.86665 -8.7905703 871.73694
177.76019 -8.750659 871.1922
178.58543 -8.7400331 870.75665
179.42859 -8.7316942 870.33679
180.28885 -8.7332983 869.93176
181.1651 -8.7421103 869.53461
182.05061 -8.7570486 869.12262
182.96349 -8.7757282 868.77374
183.88354 -8.8019981 868.4024
184.86037 -8.8980913 868.18915
185.82222 -8.9362812 867.87781
186.7986 -8.9702959 867.63544
187.85098 -9.0820389 867.50122
188.94217 -9.1442499 867.46149
189.97156 -9.1743898 867.35394
191.0065 -9.1887102 867.31677
192.05948 -9.2049532 867.27789
193.09666 -9.2131004 867.33044
194.14917 -9.2156286 867.40845
195.04555 -9.1489477 867.40393
196.09224 -9.151269 867.54083
196.79747 -8.9504957 867.52576
197.81396 -8.9308052 867.70679
198.82562 -8.9062376 867.91425
199.63568 -8.7499599 868.02094
200.63199 -8.7131557 868.27295
201.40427 -8.5341501 868.38275
202.38704 -8.492507 868.63843
203.36217 -8.455121 868.88556
204.32927 -8.4107189 869.10181
205.29996 -8.3584223 869.38519
206.51192 -8.4769459 869.8056
207.47923 -8.4268961 870.13782
208.70317 -8.5396471 870.57568
209.65533 -8.4956055 870.91119
210.89061 -8.5918112 871.43219
212.13919 -8.6670513 872.00226
213.40309 -8.7288361 872.62537
214.68869 -8.781538 873.23724
215.9696 -8.8132935 874.00208
217.25081 -8.8291941 874.85303
218.56381 -8.8402205 875.64221
219.87846 -8.8416109 876.49158
220.70271 -8.8440161 877.02899
222.53325 -8.8175621 878.28705
223.30238 -8.8516989 878.82489
224.62653 -8.84554 879.7171
226.64713 -8.7190256 880.94025
229.44473 -8.2961035 882.80511
231.1944 -8.1966963 884.73926
233.48053 -8.0315609 888.75403
235.06747 -8.0800829 892.15973
237.21381 -8.1744699 897.53937
238.81543 -8.4416504 902.05005
240.15746 -8.8717747 906.66693
242.5688 -9.0534754 912.84833
245.35603 -8.7807655 916.5918
247.71609 -8.5869713 919.50122
251.55927 -8.0683403 924.14575
254.45735 -7.9953361 928.8905
256.13199 -8.1452599 931.95026
257.63931 -8.4578028 936.13141
259.06949 -8.8795776 941.47119
261.077 -9.1934166 947.67303
263.03244 -9.2976313 951.72906
265.21439 -9.44765 956.82098
264.80045 -9.9551697 955.28674
144.65121 -7.8686471 970.65546
145.48785 -7.8710113 968.6698
146.41263 -8.1405239 964.80438
147.1805 -8.2031832 961.84808
148.01669 -8.3223324 958.90997
148.95575 -8.5237322 955.99139
150.00343 -8.8167677 953.09271
151.07213 -9.1356945 950.19855
151.91766 -9.1823044 948.21704
152.54767 -8.9543848 947.14972
153.17403 -8.7237406 946.0816
153.78119 -8.4798422 945.00885
154.38533 -8.2337484 943.93475
154.81946 -7.7415056 943.77979
155.56334 -7.7204652 941.77808
156.1364 -7.4544973 940.69641
156.82138 -7.3948536 938.6817
157.52917 -7.4786873 935.71521
158.13103 -7.364356 933.68518
158.74937 -7.5124688 929.7453
159.17104 -7.0179343 929.58862
159.48956 -7.7384143 919.71216
159.96906 -7.3322654 919.45758
160.27139 -7.5288062 913.55103
161.16664 -7.8861547 909.81036
161.82596 -7.8606772 907.79584
162.45749 -7.7048531 906.67285
163.02103 -7.5140157 905.51141
163.67281 -7.4922576 903.48242
164.23123 -7.4105439 901.38745
164.5872 -7.306108 898.23938
164.80342 -7.1235366 894.94543
165.08575 -6.764195 893.41461
165.36201 -6.4028225 891.80121
165.34958 -6.322578 886.98621
165.89024 -6.6076503 882.8255
167.2036 -7.2299514 879.86646
168.38113 -7.5061536 878.54382
169.78482 -7.8746667 877.16901
170.93167 -7.9935036 876.26544
171.79907 -7.9901128 875.4585
172.83295 -8.0433426 874.48688
173.84538 -8.0391541 873.66357
174.57372 -7.9634223 873.17004
175.30495 -7.9018497 872.65179
176.065 -7.8493209 872.14417
176.94446 -7.8203869 871.53607
