# .PCD v0.7 - Point Cloud Data file format
VERSION 0.7
FIELDS x y z
SIZE 4 4 4
TYPE F F F
COUNT 1 1 1
WIDTH 1112
HEIGHT 1
VIEWPOINT 0 0 0 1 0 0 0
POINTS 1112
DATA ascii
-510.785 392.616 915
-471.565 401.32101 877
-502.237 411.96799 887
-527.37402 411.54599 913
-526.33197 411.54599 913
-485.03699 385.66101 887
-484.02499 385.66101 887
-467.88199 396.04901 872
-507.99399 387.35699 910
-506.95599 387.35699 910
-513.92499 417.80099 904
-497.42599 400.271 904
-451.448 405.53 871
-500.51999 382.73999 904
-465.64999 400.23901 866
-459.72299 400.23901 866
-445.89301 400.23901 866
-493.64999 394.98001 899
-492.62399 394.98001 899
-491.599 394.98001 899
-490.573 394.98001 899
-476.806 406.08099 883
-462.70401 406.08099 883
-461.69699 406.08099 883
-460.69 406.08099 883
-473.104 400.77701 878
-504.17099 382.13101 905
-510.36499 417.23099 905
-537.09698 401.37 928
-511.19101 386.12701 912
-510.151 386.12701 912
-499.52301 416.79199 893
-503.99799 411.276 901
-502.97 411.276 901
-501.94199 411.276 901
-495.53699 389.13901 895
-494.51599 389.13901 895
-464.20999 399.71201 867
-459.26501 399.71201 867
-458.276 399.71201 867
-505.435 404.409 911
-503.35599 404.409 911
-477.34601 405.53201 884
-509.89499 416.65799 906
-475.64899 400.23099 879
-474.646 400.23099 879
-505.586 410.703 902
-453.48099 404.47 873
-494.59799 387.96201 897
-507.177 410.12799 903
-456.16199 393.92999 863
-499.621 415.68301 895
-511.021 415.50699 908
-504.92999 404.20999 899
-503.90399 404.20999 899
-502.879 404.20999 899
-501.853 404.20999 899
-500.828 404.20999 899
-499.802 404.20999 899
-580.78802 379.21701 986
-579.66302 379.21701 986
-578.53802 379.21701 986
-458.13101 402.79001 863
-453.51901 388.711 858
-484.17499 409.76001 891
-512.89398 409.55099 904
-511.86301 409.55099 904
-521.125 420.91901 913
-500.17899 415.12601 896
-512.62 414.927 909
-508.57199 403.633 900
-507.54501 403.633 900
-506.51801 403.633 900
-505.492 403.633 900
-502.10599 391.422 905
-471.48801 403.39999 875
-455.51801 403.39999 875
-454.51999 403.39999 875
-580.14203 381.427 983
-498.85901 420.526 901
-497.83099 420.526 901
-495.776 420.526 901
-494.74799 420.526 901
-461.84698 398.11801 870
-441.30899 397.00299 859
-440.32901 397.00299 859
-461.16599 392.86899 865
-516.09601 408.39001 906
-570.44397 377.59698 976
-498.384 419.96301 902
-497.35501 419.96301 902
-496.32599 419.96301 902
-495.297 419.96301 902
-518.94397 413.76199 911
-517.90503 413.76199 911
-555.24799 404.383 950
-499.64999 413.52499 886
-466.35199 397.582 871
-560.263 411.09601 953
-559.17603 411.09601 953
-456.53799 387.655 860
-455.55701 387.655 860
-565.83099 373.06299 970
-535.89301 387.09201 937
-445.37799 401.75 865
-533.94598 391.72198 943
-532.87 391.72198 943
-502.73499 389.61301 908
-523.88202 419.16699 916
-522.83698 419.16699 916
-521.79199 419.16699 916
-462.68701 392.336 866
-524.71503 413.17599 912
-523.67499 413.17599 912
-509.18399 394.272 914
-564.20697 409.11801 956
-498.77701 413.439 899
-497.75101 413.439 899
-496.72601 413.439 899
-491.599 413.439 899
-490.573 413.439 899
-503.28799 389.005 909
-485.03699 386.672 887
-484.02499 386.672 887
-529.31799 398.95901 920
-528.26898 398.95901 920
-500.21399 412.98001 887
-510.785 393.66 915
-527.37402 412.58701 913
-526.33197 412.58701 913
-466.638 401.22601 866
-459.72299 401.22601 866
-445.89301 401.22601 866
-558.388 370.698 961
-566.06201 397.00699 961
-564.966 397.00699 961
-563.87 397.00699 961
-496.39499 401.302 904
-499.48901 383.771 904
-557.80701 371.40701 960
-530.94397 398.34201 921
-534.01099 409.66101 930
-532.95001 409.66101 930
-513.43298 393.04501 916
-512.388 393.04501 916
-462.70401 407.08801 883
-461.69699 407.08801 883
-460.69 407.08801 883
-489.884 390.74399 894
-510.63101 387.78201 911
-509.591 387.78201 911
-503.138 383.164 905
-502.10599 383.164 905
-515.526 418.263 905
-502.80399 406.04099 910
-452.961 405.996 872
-459.26501 400.70099 867
-458.276 400.70099 867
-551.56598 367.612 953
-550.479 367.612 953
-511.19101 387.168 912
-510.151 387.168 912
-487.14401 385.51599 889
-502.97 412.30301 901
-501.94199 412.30301 901
-495.53699 390.16 895
-493.495 390.16 895
-475.64899 401.233 879
-474.646 401.233 879
-501.62701 400.12299 906
-503.35599 405.448 911
-498.85901 394.83099 901
-487.69199 384.935 890
-453.48099 405.465 873
-504.94901 404.853 912
-465.73599 400.173 868
-478.89499 405.991 885
-495.621 388.98499 897
-588.35901 382.67801 995
-499.621 416.70401 895
-587.76801 383.427 994
-453.51901 389.69 858
-481.45801 405.439 886
-480.44699 405.439 886
-479.436 405.439 886
-511.021 416.54199 908
-465.28101 399.642 869
-464.29001 399.642 869
-503.90399 405.23499 899
-502.879 405.23499 899
-501.853 405.23499 899
-500.828 405.23499 899
-499.802 405.23499 899
-484.17499 410.776 891
-508.76901 410.58301 904
-523.20801 421.95999 913
-522.16602 421.95999 913
-495.70099 387.802 899
-508.57199 404.659 900
-507.54501 404.659 900
-506.51801 404.659 900
-454.51999 404.39801 875
-580.78802 380.341 986
-579.66302 380.341 986
-459.125 409.72 880
-514.49402 410.004 905
-447.82001 403.25699 864
-446.83499 403.25699 864
-445.849 403.25699 864
-574.48602 375.056 981
-464.82401 399.10999 870
-462.83899 399.10999 870
-461.84698 399.10999 870
-460.854 399.10999 870
-441.30899 397.983 859
-440.32901 397.983 859
-495.22501 387.20599 900
-460.17899 393.85599 865
-515.26001 415.384 910
-582.97699 381.815 984
-581.85498 381.815 984
-510.164 404.08099 901
-498.85901 404.08099 901
-580.14203 382.548 983
-579.021 382.548 983
-516.09601 409.42401 906
-495.776 386.60901 901
-497.35501 420.992 902
-494.26801 420.992 902
-455.55701 388.63599 860
-466.35199 398.57501 871
-465.358 398.57501 871
-521.22302 420.797 915
-503.215 391.25299 907
-445.37799 402.737 865
-444.392 402.737 865
-517.90503 414.80099 911
-504.36801 415.02802 898
-503.34399 415.02802 898
-502.32001 415.02802 898
-501.29501 415.02802 898
-495.297 403.50101 902
-555.24799 405.46701 950
-554.164 405.46701 950
-556.91699 404.80899 951
-540.40002 392.798 943
-533.94598 392.798 943
-532.87 392.798 943
-521.79199 420.21201 916
-462.17999 408.63901 882
-461.17401 408.63901 882
-472.565 403.32199 877
-509.18399 395.315 914
-558.58899 404.14899 952
-557.50299 404.14899 952
-538.81897 392.138 944
-537.742 392.138 944
-535.58899 392.138 944
-502.879 414.465 899
-501.853 414.465 899
-498.77701 414.465 899
-497.75101 414.465 899
-496.72601 414.465 899
-491.599 414.465 899
-490.573 414.465 899
-563.117 410.20901 956
-562.026 410.20901 956
-530.36798 400.009 920
-529.31799 400.009 920
-528.26898 400.009 920
-527.59198 419.625 917
-526.54602 419.625 917
-525.5 419.625 917
-510.785 394.70401 915
-527.37402 413.629 913
-526.33197 413.629 913
-565.88898 409.54599 957
-496.39499 402.33301 904
-462.70401 408.095 883
-461.69699 408.095 883
-460.69 408.095 883
-534.01099 410.72198 930
-532.95001 410.72198 930
-513.43298 394.09 916
-512.388 394.09 916
-468.418 397.49899 873
-566.06201 398.103 961
-564.966 398.103 961
-563.87 398.103 961
-499.009 384.19601 905
-497.97699 384.19601 905
-507.513 388.82101 911
-506.474 388.82101 911
-505.435 388.82101 911
-497.97699 401.746 905
-459.26501 401.69 867
-458.276 401.69 867
-536.70898 410.10199 931
-535.64697 410.10199 931
-515.526 419.29501 905
-504.88 407.07901 910
-488.15799 386.53 889
-487.14401 386.53 889
-504.728 383.58701 906
-491.453 391.181 895
-533.15002 398.155 923
-532.09698 398.155 923
-499.56 401.15601 906
-551.56598 368.69901 953
-550.479 368.69901 953
-469.952 396.957 874
-496.80301 395.85901 901
-508.552 406.48801 911
-507.513 406.48801 911
-506.474 406.48801 911
-505.435 406.48801 911
-504.55701 412.76099 902
-503.215 400.564 907
-500.44101 395.26901 902
-504.94901 405.89301 912
-540.37598 402.23499 930
-539.315 402.23499 930
-494.42899 401.51199 893
-545.28003 366.29401 944
-544.203 366.29401 944
-513.56201 418.15302 907
-512.52698 418.15302 907
-506.147 412.189 903
-452.54001 390.66901 858
-499.621 417.72501 895
-462.327 399.47699 858
-461.349 399.47699 858
-460.37 399.47699 858
-480.44699 406.45001 886
-488.78799 384.78201 892
-487.771 384.78201 892
-497.198 389.41901 898
-502.879 406.26099 899
-501.853 406.26099 899
-584.27301 378.496 990
-507.73801 411.61401 904
-474.48199 405.396 875
-473.48401 405.396 875
-496.72601 388.827 899
-501.285 410.724 880
-500.28101 410.724 880
-523.20801 423.00201 913
-522.16602 423.00201 913
-507.54501 405.686 900
-506.51801 405.686 900
-505.492 405.686 900
-462.83899 400.10199 870
-461.84698 400.10199 870
-460.854 400.10199 870
-459.862 400.10199 870
-441.30899 398.96301 859
-440.32901 398.96301 859
-512.42902 411.03699 905
-511.397 411.03699 905
-510.36499 411.03699 905
-495.22501 388.233 900
-580.78802 381.466 986
-579.66302 381.466 986
-511.19199 405.10901 901
-510.164 405.10901 901
-503.694 392.888 906
-574.48602 376.17499 981
-473.026 404.85999 876
-456.03799 404.85999 876
-455.55701 389.617 860
-466.35199 399.569 871
-464.36499 399.569 871
-496.80301 387.63699 901
-582.97699 382.93701 984
-581.85498 382.93701 984
-523.31 421.841 915
-510.51401 416.052 898
-500.271 416.052 898
-514.78699 415.84 911
-511.76001 404.53 902
-502.49899 404.53 902
-501.47 404.53 902
-580.14203 383.66901 983
-579.021 383.66901 983
-517.70001 409.87601 907
-497.35501 387.03799 902
-495.297 387.03799 902
-462.17999 409.64499 882
-461.17401 409.64499 882
-487.845 410.12 894
-486.82501 410.12 894
-457.069 389.08801 861
-522.83698 421.25699 916
-496.87601 403.948 903
-555.24799 406.55099 950
-554.164 406.55099 950
-510.22699 396.35699 914
-505.95499 415.48999 899
-500.828 415.48999 899
-499.802 415.48999 899
-491.599 415.48999 899
-490.573 415.48999 899
-489.548 415.48999 899
-496.87601 386.43701 903
-495.84601 386.43701 903
-556.91699 405.89401 951
-463.22101 393.77802 867
-504.32501 391.07901 909
-539.896 393.215 944
-538.81897 393.215 944
-535.58899 393.215 944
-558.58899 405.23499 952
-539.17902 387.91901 939
-538.10797 387.91901 939
-535.96503 387.91901 939
-537.23401 392.55301 945
-510.785 395.74701 915
-527.59198 420.67099 917
-526.54602 420.67099 917
-525.5 420.67099 917
-524.45398 420.67099 917
-523.40802 420.67099 917
-535.46399 387.259 940
-526.33197 414.67001 913
-525.29102 414.67001 913
-524.24902 414.67001 913
-523.20801 414.67001 913
-522.16602 414.67001 913
-498.457 385.83401 904
-563.117 411.29901 956
-458.58301 388.55701 862
-520.91602 408.70599 909
-519.87903 408.70599 909
-518.84198 408.70599 909
-504.465 414.92599 900
-501.38501 414.92599 900
-499.76501 414.45801 888
-447.397 402.67899 867
-567.573 409.974 958
-499.009 385.228 905
-497.97699 385.228 905
-496.944 385.228 905
-505.435 389.86099 911
-560.06702 372.181 962
-558.388 372.89001 961
-566.06201 399.20001 961
-564.966 399.20001 961
-563.87 399.20001 961
-536.70898 411.164 931
-535.64697 411.164 931
-503.99799 414.35901 901
-502.97 414.35901 901
-510.151 389.24799 912
-509.11099 389.24799 912
-469.952 397.95401 874
-501.62701 384.62 906
-500.328 413.91101 889
-499.31299 413.91101 889
-533.15002 399.207 923
-508.552 407.52701 911
-507.513 407.52701 911
-447.91299 402.15302 868
-466.272 392.70401 869
-465.28101 392.70401 869
-495.06799 391.61801 896
-494.04599 391.61801 896
-493.02399 391.61801 896
-551.56598 369.78601 953
-504.55701 413.79001 902
-503.52802 413.79001 902
-502.49899 413.79001 902
-501.47 413.79001 902
-474.18201 402.694 880
-498.384 396.298 902
-496.32599 396.298 902
-472.48599 397.41101 875
-471.48801 397.41101 875
-504.94901 406.93399 912
-507.91299 383.39801 908
-506.87799 383.39801 908
-505.966 413.36099 890
-504.95099 413.36099 890
-502.92099 413.36099 890
-489.25699 386.384 891
-540.37598 403.29599 930
-539.315 403.29599 930
-498.69101 391.03201 897
-497.66699 391.03201 897
-462.327 400.45599 858
-461.349 400.45599 858
-506.147 413.21899 903
-546.35699 367.371 944
-545.28003 367.371 944
-544.203 367.371 944
-506.54401 406.33899 913
-479.436 407.461 886
-515.164 418.61401 908
-454.048 391.12399 859
-508.142 405.741 914
-467.80099 401.095 870
-459.927 399.94299 859
-585.40302 379.62601 990
-584.27301 379.62601 990
-505.492 406.71301 900
-504.465 406.71301 900
-512.62 418.03799 909
-588.35901 384.948 995
-448.48199 385.92499 854
-447.508 385.92499 854
-455.55701 390.59799 860
-456.03799 405.85901 876
-509.13699 406.13699 901
-505.76099 393.922 906
-504.728 393.922 906
-503.694 393.922 906
-467.345 400.56201 871
-462.42401 399.42801 860
-461.44299 399.42801 860
-460.46201 399.42801 860
-514.02899 411.491 906
-459.72299 395.29901 866
-497.83099 388.664 901
-580.78802 382.591 986
-511.539 417.077 898
-500.271 417.077 898
-514.78699 416.879 911
-513.74799 416.879 911
-498.384 388.06699 902
-462.17999 410.65201 882
-461.17401 410.65201 882
-486.82501 411.14001 894
-582.97699 384.06 984
-581.85498 384.06 984
-573.31403 378.758 979
-462.23199 394.767 867
-514.38702 404.978 903
-513.35699 404.978 903
-500.996 404.978 903
-496.87601 404.978 903
-518.47302 416.297 912
-517.43298 416.297 912
-555.24799 407.634 950
-554.164 407.634 950
-556.91699 406.979 951
-566.99799 374.94101 972
-458.58301 389.54001 862
-527.59198 421.71701 917
-526.54602 421.71701 917
-525.5 421.71701 917
-524.45398 421.71701 917
-498.457 404.39499 904
-520.08301 415.71201 913
-498.457 386.86499 904
-539.17902 388.98999 939
-538.10797 388.98999 939
-498.30499 415.952 900
-519.87903 409.74301 909
-518.84198 409.74301 909
-535.46399 388.332 940
-565.203 404.99799 954
-564.11499 404.99799 954
-563.02698 404.99799 954
-561.93903 404.99799 954
-560.85101 404.99799 954
-451.035 384.34799 857
-450.05801 384.34799 857
-449.07999 384.34799 857
-497.97699 386.26099 905
-496.944 386.26099 905
-521.69598 415.12399 914
-497.97699 403.81 905
-496.944 403.81 905
-505.435 390.89999 911
-565.388 411.06699 958
-460.10001 389.008 863
-468.95499 398.95099 874
-513.99402 395.56601 917
-512.948 395.56601 917
-506.05301 415.38699 901
-536.70898 412.22601 931
-535.64697 412.22601 931
-534.58502 412.22601 931
-533.52301 412.22601 931
-500.59399 385.65399 906
-507.03 390.289 912
-465.28101 393.69501 869
-498.52701 403.22299 906
-487.69199 387.98001 890
-533.15002 400.26001 923
-532.09698 400.26001 923
-505.285 385.04501 907
-504.25 385.04501 907
-503.215 385.04501 907
-505.586 414.819 902
-502.49899 414.819 902
-501.47 414.819 902
-471.48801 398.409 875
-554.39301 368.76901 956
-500.112 402.634 907
-497.35501 397.327 902
-496.32599 397.327 902
-490.27301 387.39999 891
-506.87799 384.43399 908
-498.69101 392.05499 897
-496.64401 392.05499 897
-498.384 379.836 902
-497.35501 379.836 902
-540.37598 404.35699 930
-539.315 404.35699 930
-506.147 414.24899 903
-475.72601 403.151 881
-502.73499 402.04199 908
-501.69901 402.04199 908
-480.44699 408.47101 886
-479.436 408.47101 886
-502.46899 413.82599 891
-501.453 413.82599 891
-455.51801 407.392 875
-468.79401 402.08701 870
-449.93799 402.08701 870
-448.94501 402.08701 870
-460.90701 400.923 859
-459.927 400.923 859
-508.142 406.784 914
-498.77701 390.87799 899
-448.48199 386.89899 854
-447.508 386.89899 854
-503.43799 407.73901 900
-510.785 406.185 915
-509.742 406.185 915
-455.55701 391.57901 860
-508.29999 413.10101 905
-490.90399 385.64499 894
-456.03799 406.85901 876
-584.27301 380.755 990
-459.48099 400.409 860
-508.10901 407.164 901
-507.08099 407.164 901
-505.76099 394.95499 906
-504.728 394.95499 906
-449.983 386.37701 855
-509.89499 412.52399 906
-577.36499 376.203 984
-498.85901 389.69199 901
-500.271 418.10101 898
-457.069 391.05301 861
-511.76001 406.58701 902
-510.73099 406.58701 902
-513.74799 417.91901 911
-500.41199 411.65799 882
-575.07098 377.67801 982
-486.82501 412.159 894
-460.01501 399.892 861
-456.298 395.75601 867
-455.30899 395.75601 867
-514.38702 406.008 903
-513.35699 406.008 903
-499.802 417.54099 899
-516.39301 417.33701 912
-458.58301 390.52399 862
-457.60001 390.52399 862
-573.31403 379.875 979
-505.362 393.15201 909
-468.418 400.48599 873
-502.99399 411.117 883
-501.987 411.117 883
-555.24799 408.71799 950
-554.164 408.71799 950
-499.48901 387.896 904
-463.755 395.22198 868
-461.53299 399.37299 862
-460.54999 399.37299 862
-525.5 422.763 917
-500.358 416.979 900
-556.91699 408.06299 951
-451.035 385.32599 857
-450.05801 385.32599 857
-449.07999 385.32599 857
-520.91602 410.78 909
-542.62402 394.70901 945
-541.54602 394.70901 945
-540.46802 394.70901 945
-539.39001 394.70901 945
-537.60797 389.40399 940
-474.646 405.24399 879
-460.10001 389.992 863
-559.17603 406.74701 953
-538.88202 394.048 946
-537.80298 394.048 946
-500.04099 387.293 905
-468.95499 399.948 874
-500.04099 404.84299 905
-526.909 416.16699 914
-525.86603 416.16699 914
-524.82397 416.16699 914
-522.73798 416.16699 914
-521.69598 416.16699 914
-565.203 406.086 954
-564.11499 406.086 954
-563.02698 406.086 954
-561.93903 406.086 954
-560.85101 406.086 954
-535.52899 388.08301 942
-534.45398 388.08301 942
-521.48901 410.194 910
-509.13699 416.414 901
-508.10901 416.414 901
-465.28101 394.686 869
-513.99402 396.612 917
-512.948 396.612 917
-531.521 401.92999 922
-530.46899 401.92999 922
-529.41699 401.92999 922
-500.59399 386.68701 906
-507.03 391.32901 912
-565.388 412.16 958
-536.70898 413.28799 931
-535.64697 413.28799 931
-534.58502 413.28799 931
-533.52301 413.28799 931
-499.56 404.25699 906
-562.84601 373.66599 963
-561.74799 373.66599 963
-501.47 415.84799 902
-509.66901 390.716 913
-508.62701 390.716 913
-499.875 415.392 890
-449.42099 403.608 869
-499.41299 380.86401 902
-498.384 380.86401 902
-497.35501 380.86401 902
-474.72101 404.15601 881
-480.44699 409.48199 886
-498.936 397.76801 903
-503.056 380.25699 903
-502.026 380.25699 903
-500.996 380.25699 903
-499.966 380.25699 903
-469.78601 403.07999 870
-449.93799 403.07999 870
-448.48199 387.87299 854
-447.508 387.87299 854
-491.37399 387.25101 893
-495.53699 403.43201 895
-593.00403 384.216 999
-591.86401 384.216 999
-503.43799 408.76599 900
-500.99799 414.29001 892
-453.595 392.56 860
-518.84198 420.112 909
-542.30603 365.715 937
-541.237 365.715 937
-540.16803 365.715 937
-510.785 407.229 915
-509.742 407.229 915
-508.29999 414.134 905
-491.92401 386.66501 894
-490.90399 386.66501 894
-459.48099 401.39001 860
-456.76001 397.27499 866
-449.983 387.35199 855
-506.05301 408.19199 901
-505.026 408.19199 901
-518.375 419.53601 910
-517.336 419.53601 910
-584.27301 381.884 990
-500.271 419.125 898
-579.07501 376.58499 985
-509.702 407.616 902
-459.03299 400.87399 861
-516.86603 418.95801 911
-514.78699 418.95801 911
-458.276 396.745 867
-457.28699 396.745 867
-456.298 396.745 867
-455.30899 396.745 867
-577.36499 377.32501 984
-511.492 412.98001 907
-499.802 418.56699 899
-491.52802 384.89301 897
-490.505 384.89301 897
-575.07098 378.798 982
-516.39301 418.37701 912
-515.35199 418.37701 912
-499.97198 412.12399 883
-575.60498 379.53201 981
-459.56601 400.35599 862
-458.58301 400.35599 862
-461.77499 396.21201 868
-459.79501 396.21201 868
-452.013 386.30301 857
-451.035 386.30301 857
-450.05801 386.30301 857
-449.07999 386.30301 857
-518.00098 417.79501 913
-556.91699 409.14801 951
-501.547 411.58301 884
-542.62402 395.78699 945
-541.54602 395.78699 945
-540.46802 395.78699 945
-539.39001 395.78699 945
-506.474 392.978 911
-526.909 417.20999 914
-525.86603 417.20999 914
-520.65302 417.20999 914
-464.03699 399.836 863
-463.05301 399.836 863
-460.10001 399.836 863
-538.88202 395.12701 946
-537.80298 395.12701 946
-536.72302 395.12701 946
-537.10699 389.81799 941
-498.85901 417.44199 901
-493.72 417.44199 901
-492.69199 417.44199 901
-559.17603 407.83401 953
-452.54001 385.77499 858
-520.45099 411.23199 910
-535.52899 389.15799 942
-533.37903 389.15799 942
-532.30499 389.15799 942
-560.85101 407.17401 954
-535.32098 384.54401 936
-534.25299 384.54401 936
-533.185 384.54401 936
-531.521 402.98199 922
-530.46899 402.98199 922
-529.41699 402.98199 922
-507.03 392.36899 912
-503.694 405.29001 906
-524.354 416.62201 915
-536.70898 414.35001 931
-535.64697 414.35001 931
-534.58502 414.35001 931
-523.10101 410.64401 911
-449.42099 404.599 869
-448.42899 404.599 869
-511.76001 416.87701 902
-510.73099 416.87701 902
-500.44101 416.87701 902
-508.62701 391.758 913
-562.84601 374.76501 963
-561.74799 374.76501 963
-462.604 399.314 864
-461.61801 399.314 864
-460.633 399.314 864
-568.758 411.92499 960
-567.66302 411.92499 960
-455.02701 385.245 859
-454.048 385.245 859
-453.06799 385.245 859
-495.297 399.38501 902
-493.23901 399.38501 902
-534.78198 401.74799 924
-533.72803 401.74799 924
-502.73499 386.505 908
-463.13901 389.909 865
-462.15302 389.909 865
-512.31201 391.14401 914
-511.26999 391.14401 914
-471.02701 399.86401 876
-554.97302 370.24701 957
-556.57397 370.95001 956
-554.39301 370.95001 956
-489.806 388.85199 892
-496.87601 398.798 903
-507.436 385.89401 909
-469.78601 404.07199 870
-468.79401 404.07199 870
-450.92999 404.07199 870
-502.026 381.28699 903
-500.996 381.28699 903
-460.17899 398.79001 865
-485.03699 383.63699 887
-484.02499 383.63699 887
-507.73801 415.73901 904
-492.392 388.26901 893
-498.77701 392.92899 899
-491.599 392.92899 899
-490.573 392.92899 899
-499.98099 415.30701 892
-505.918 402.927 910
-504.88 402.927 910
-508.29999 415.16599 905
-449.983 388.328 855
-461.69901 398.263 866
-542.30603 366.784 937
-541.237 366.784 937
-540.16803 366.784 937
-593.00403 385.35599 999
-591.86401 385.35599 999
-505.026 409.22 901
-500.54099 414.754 893
-459.03299 401.85599 861
-497.66699 403.31 897
-458.276 397.73401 867
-456.298 397.73401 867
-455.30899 397.73401 867
-482.07401 408.84 889
-451.48499 387.80499 856
-507.64401 408.64499 902
-506.20099 414.19901 894
-505.181 414.19901 894
-502.12201 414.19901 894
-501.10199 414.19901 894
-580.78802 376.96701 986
-500.44101 391.15399 902
-510.45801 414.01401 907
-457.60001 392.48999 862
-584.27301 383.01401 990
-496.173 402.73599 898
-458.08099 407.78799 878
-452.48499 402.478 873
-451.48901 402.478 873
-511.297 408.06799 903
-491.52802 385.91599 897
-490.505 385.91599 897
-518.47302 419.418 912
-516.39301 419.418 912
-458.58301 401.34 862
-461.77499 397.202 868
-459.79501 397.202 868
-452.013 387.28101 857
-513.09198 413.435 908
-513.92499 407.48901 904
-500.51999 389.95901 904
-499.332 419.03201 900
-518.00098 418.836 913
-469.952 401.94199 874
-576.724 380.651 981
-575.60498 380.651 981
-506.95599 394.62299 910
-499.53 412.591 884
-463.298 396.66901 869
-570.44397 375.371 976
-458.13101 400.82101 863
-556.91699 410.233 951
-555.83197 410.233 951
-519.61102 418.25201 914
-499.88699 418.47 901
-498.85901 418.47 901
-494.74799 418.47 901
-493.72 418.47 901
-492.69199 418.47 901
-460.633 391.42999 864
-519.41302 412.26999 910
-518.375 412.26999 910
-476.19 406.70901 880
-540.32703 390.892 941
-539.25403 390.892 941
-501.10501 412.048 885
-559.17603 408.922 953
-536.60303 390.23199 942
-533.37903 390.23199 942
-532.30499 390.23199 942
-559.08698 401.55399 951
-558.00201 401.55399 951
-556.91699 401.55399 951
-534.25299 385.61099 936
-465.81601 396.133 870
-525.39801 417.66599 915
-524.354 417.66599 915
-523.31 417.66599 915
-522.26599 417.66599 915
-560.85101 408.26199 954
-563.56 372.29401 968
-562.45599 372.29401 968
-454.048 386.22501 859
-523.10101 411.68399 911
-500.44101 417.90601 902
-497.35501 417.90601 902
-496.32599 417.90601 902
-495.297 417.90601 902
-565.79602 407.60101 955
-563.617 407.60101 955
-562.52802 407.60101 955
-536.70898 415.41199 931
-535.64697 415.41199 931
-534.58502 415.41199 931
-563.49799 373.728 966
-462.15302 390.896 865
-535.836 402.802 924
-534.78198 402.802 924
-533.72803 402.802 924
-524.71503 411.095 912
-568.758 413.01999 960
-567.66302 413.01999 960
-498.936 417.33899 903
-497.90601 417.33899 903
-464.12601 399.776 865
-460.17899 399.776 865
-529.31799 396.85999 920
-528.26898 396.85999 920
-505.362 386.931 909
-504.32501 386.931 909
-498.936 382.31699 903
-497.90601 382.31699 903
-556.57397 372.04099 956
-555.48297 372.04099 956
-485.03699 384.64899 887
-484.02499 384.64899 887
-493.41101 389.28799 893
-491.37399 389.28799 893
-535.93903 401.561 926
-499.48901 399.23901 904
-498.457 399.23901 904
-508.76901 416.76999 904
-501.21399 404.55801 909
-468.87701 395.05399 872
-467.88199 395.05399 872
-491.75299 400.16299 890
-499.98099 416.32501 892
-496.72601 393.95499 899
-495.70099 393.95499 899
-494.67499 393.95499 899
-493.64999 393.95499 899
-492.62399 393.95499 899
-491.599 393.95499 899
-490.573 393.95499 899
-449.983 389.30301 855
-449.00699 389.30301 855
-462.68701 399.25101 866
-461.69901 399.25101 866
-459.72299 399.25101 866
-538.15503 400.311 928
-537.09698 400.311 928
-503.99799 410.24799 901
-499.52301 415.77301 893
-493.495 388.11801 895
-451.96701 404.00601 872
-519.41302 421.612 910
-451.48499 388.78201 856
-497.66699 404.33401 897
-593.00403 386.496 999
-591.86401 386.496 999
-500.082 415.21899 894
-452.48499 403.474 873
-458.58301 402.323 862
-510.267 409.09799 903
-509.237 409.09799 903
-580.78802 378.09201 986
-507.78799 414.66199 895
-504.72501 414.66199 895
-503.70401 414.66199 895
-500.64099 414.66199 895
-503.90399 403.18399 899
-502.879 403.18399 899
-501.853 403.18399 899
-495.70099 403.18399 899
-493.10001 386.34601 898
-500.358 420.05899 900
-499.332 420.05899 900
-513.92499 408.51999 904
-512.89398 408.51999 904
-577.36499 379.57001 984
-484.17499 408.74399 891
-458.13101 401.80499 863
-463.298 397.66 869
-453.51901 387.733 858
-515.73102 413.89001 909
-514.69397 413.89001 909
-507.54501 402.60599 900
-506.51801 402.60599 900
-505.492 402.60599 900
-459.647 392.41501 864
-576.724 381.76999 981
-575.60498 381.76999 981
-574.48602 381.76999 981
-498.85901 419.49799 901
-493.72 419.49799 901
-492.69199 419.49799 901
-519.61102 419.29501 914
-459.125 407.71301 880
-570.44397 376.48401 976
-501.62701 389.78799 906
-464.82401 397.125 870
-454.048 387.20499 859
-540.32703 391.965 941
-560.263 410.009 953
-559.17603 410.009 953
-538.75201 391.30701 942
-498.384 418.93399 902
-497.35501 418.93399 902
-496.32599 418.93399 902
-522.06201 412.72299 911
-521.02301 412.72299 911
-559.08698 402.63901 951
-558.00201 402.63901 951
-556.91699 402.63901 951
-536.09698 390.647 943
-535.021 390.647 943
-536.961 386.02301 937
-535.89301 386.02301 937
-536.70898 416.474 931
-535.64697 416.474 931
-534.58502 416.474 931
-471.02701 401.862 876
-563.56 373.39801 968
-535.58899 389.98401 944
-562.52802 408.69 955
-500.66 412.51401 886
-565.29797 408.02802 956
-456.53799 386.67401 860
-455.55701 386.67401 860
-524.71503 412.13501 912
-460.17899 400.763 865
-498.936 418.36899 903
-509.18399 393.23001 914
-502.73499 406.185 908
-503.28799 387.96799 909
-529.31799 397.91 920
-528.26898 397.91 920
