# .PCD v0.7 - Point Cloud Data file format
VERSION 0.7
FIELDS x y z
SIZE 4 4 4
TYPE F F F
COUNT 1 1 1
WIDTH 1207
HEIGHT 1
VIEWPOINT 0 0 0 1 0 0 0
POINTS 1207
DATA ascii
-10.9466 234.06599 586
-10.2781 234.06599 586
-9.6096897 234.06599 586
-8.9412403 234.06599 586
-8.2727804 234.06599 586
-12.8857 236.19299 583
-12.2206 236.19299 583
-11.5556 236.19299 583
-10.8906 236.19299 583
-10.2255 236.19299 583
50.308399 204.37801 591
50.982601 204.37801 591
51.6567 204.37801 591
52.330898 204.37801 591
-17.691299 250.29201 588
-17.020599 250.29201 588
12.4493 225.37601 586
13.1178 225.37601 586
13.7862 225.37601 586
14.4547 225.37601 586
15.1231 225.37601 586
15.7916 225.37601 586
16.4601 225.37601 586
30.0292 266.672 577
30.687401 266.672 577
31.3456 266.672 577
38.302799 203.03999 593
38.979198 203.03999 593
39.655602 203.03999 593
47.7729 203.03999 593
32.265701 245.231 570
7.1259198 241.57201 588
7.7966599 241.57201 588
9.1381302 241.57201 588
39.855999 216.686 586
40.524399 216.686 586
-6.2888098 232.853 588
-5.6180701 232.853 588
-4.94734 232.853 588
-4.2765999 232.853 588
-3.60586 232.853 588
-2.9351299 232.853 588
7.1259198 224.133 588
7.7966599 224.133 588
8.4673901 224.133 588
9.1381302 224.133 588
18.5284 224.133 588
19.1992 224.133 588
20.5406 224.133 588
21.211399 224.133 588
-11.5358 237.116 582
-14.9829 251.205 587
-14.3133 251.205 587
-13.6437 251.205 587
7.1501598 240.375 590
7.8231802 240.375 590
9.1692104 240.375 590
9.8422298 240.375 590
3.1120501 222.877 590
3.7850699 222.877 590
4.4580898 222.877 590
5.8041201 222.877 590
36.737999 265.61499 579
37.398499 265.61499 579
-7.61731 233.79601 587
-6.94771 233.79601 587
-3.59973 233.79601 587
-2.93014 233.79601 587
-2.26054 233.79601 587
49.042999 204.048 592
5.8238001 230.38499 592
6.4991002 230.38499 592
43.787998 202.705 594
44.465599 202.705 594
46.498299 202.705 594
47.1759 202.705 594
9.7921801 225.091 587
10.4618 225.091 587
11.1314 225.091 587
11.801 225.091 587
17.1577 225.091 587
17.827299 225.091 587
-13.5739 235.93201 584
-12.9078 235.93201 584
-10.9092 235.93201 584
-10.2431 235.93201 584
-9.5768995 235.93201 584
-8.9107199 235.93201 584
-12.952 252.114 586
-12.2835 252.114 586
-11.6151 252.114 586
-10.9466 252.114 586
-10.2781 252.114 586
-9.6096897 252.114 586
-8.9412403 252.114 586
-8.2727804 252.114 586
5.1224098 241.311 589
5.7942801 241.311 589
9.8255501 241.311 589
31.671 245.00999 571
6.4661598 223.843 589
7.1380401 223.843 589
7.8099198 223.843 589
8.4817896 223.843 589
18.559999 223.843 589
19.2318 223.843 589
-10.9466 234.735 586
-10.2781 234.735 586
-9.6096897 234.735 586
-8.9412403 234.735 586
-8.2727804 234.735 586
4.4278598 234.735 586
5.0963202 234.735 586
-12.8857 236.858 583
-18.362101 250.963 588
-17.691299 250.963 588
-17.020599 250.963 588
-16.349899 250.963 588
50.308399 205.052 591
50.982601 205.052 591
51.6567 205.052 591
52.330898 205.052 591
13.7862 226.045 586
15.7916 226.045 586
32.915901 245.881 570
33.566101 245.881 570
34.216301 245.881 570
-0.90722197 257.90302 578
-0.24789201 257.90302 578
37.626301 203.717 593
38.302799 203.717 593
38.979198 203.717 593
39.655602 203.717 593
47.7729 203.717 593
48.449402 203.717 593
35.717098 202.367 595
36.395802 202.367 595
37.074501 202.367 595
-5.6180701 233.524 588
-4.94734 233.524 588
-4.2765999 233.524 588
-3.60586 233.524 588
-2.9351299 233.524 588
9.1381302 224.804 588
18.5284 224.804 588
19.1992 224.804 588
19.8699 224.804 588
20.5406 224.804 588
21.211399 224.804 588
-15.6525 251.875 587
-14.9829 251.875 587
-14.3133 251.875 587
9.8422298 241.048 590
19.2645 232.299 590
19.9375 232.299 590
2.4390299 223.55 590
3.1120501 223.55 590
3.7850699 223.55 590
5.1311002 223.55 590
19.9375 223.55 590
20.6105 223.55 590
36.737999 266.27499 579
37.398499 266.27499 579
38.058899 266.27499 579
-7.61731 234.466 587
-6.94771 234.466 587
-3.59973 234.466 587
-2.93014 234.466 587
-2.26054 234.466 587
49.042999 204.724 592
49.7183 204.724 592
37.012199 203.383 594
37.6898 203.383 594
43.787998 203.383 594
44.465599 203.383 594
45.820702 203.383 594
46.498299 203.383 594
47.1759 203.383 594
-13.5739 236.59801 584
-9.5768995 236.59801 584
9.7921801 225.761 587
10.4618 225.761 587
11.1314 225.761 587
11.801 225.761 587
17.1577 225.761 587
17.827299 225.761 587
18.496901 225.761 587
-13.6204 252.783 586
-12.952 252.783 586
-12.2835 252.783 586
-11.6151 252.783 586
-10.9466 252.783 586
-10.2781 252.783 586
-9.6096897 252.783 586
-8.9412403 252.783 586
-8.2727804 252.783 586
5.1224098 241.983 589
5.7942801 241.983 589
6.4661598 241.983 589
9.8255501 241.983 589
10.4974 241.983 589
31.671 245.661 571
6.4661598 224.51401 589
19.9037 224.51401 589
-10.2781 235.403 586
-9.6096897 235.403 586
-8.9412403 235.403 586
-2.9251399 235.403 586
3.7594099 235.403 586
4.4278598 235.403 586
5.0963202 235.403 586
5.76477 235.403 586
-12.8857 237.52299 583
-12.2206 237.52299 583
10.5331 240.782 591
11.2072 240.782 591
0.42069101 223.254 591
1.0948499 223.254 591
1.7690099 223.254 591
2.4431701 223.254 591
50.308399 205.726 591
50.982601 205.726 591
51.6567 205.726 591
52.330898 205.726 591
33.566101 246.53101 570
34.216301 246.53101 570
-1.56655 258.56299 578
-0.90722197 258.56299 578
-0.24789201 258.56299 578
0.411437 258.56299 578
38.302799 204.39301 593
38.979198 204.39301 593
47.7729 204.39301 593
48.449402 204.39301 593
35.0383 203.04601 595
35.717098 203.04601 595
36.395802 203.04601 595
37.074501 203.04601 595
37.753201 203.04601 595
45.2192 203.04601 595
45.8979 203.04601 595
-6.2888098 234.194 588
-4.94734 234.194 588
-4.2765999 234.194 588
5.7844501 234.194 588
6.4551802 234.194 588
7.1259198 234.194 588
7.1259198 225.47501 588
7.7966599 225.47501 588
8.4673901 225.47501 588
9.1381302 225.47501 588
18.5284 225.47501 588
19.1992 225.47501 588
19.8699 225.47501 588
20.5406 225.47501 588
21.211399 225.47501 588
21.882099 225.47501 588
38.124699 266.073 580
38.786301 266.073 580
39.447899 266.073 580
-15.6525 252.545 587
-14.9829 252.545 587
-14.3133 252.545 587
-13.6437 252.545 587
19.2645 232.972 590
19.9375 232.972 590
1.76601 224.22301 590
2.4390299 224.22301 590
3.1120501 224.22301 590
3.7850699 224.22301 590
4.4580898 224.22301 590
5.1311002 224.22301 590
5.8041201 224.22301 590
19.9375 224.22301 590
20.6105 224.22301 590
36.737999 266.935 579
40.040401 266.935 579
40.700802 266.935 579
-7.61731 235.13499 587
-6.94771 235.13499 587
-4.26933 235.13499 587
-3.59973 235.13499 587
-2.93014 235.13499 587
-2.26054 235.13499 587
5.77461 235.13499 587
6.4442101 235.13499 587
48.367699 205.399 592
49.042999 205.399 592
49.7183 205.399 592
-13.5739 237.26401 584
10.4618 226.42999 587
11.1314 226.42999 587
11.801 226.42999 587
12.4706 226.42999 587
13.1402 226.42999 587
14.4794 226.42999 587
15.149 226.42999 587
16.4881 226.42999 587
17.1577 226.42999 587
17.827299 226.42999 587
36.334599 204.06 594
37.012199 204.06 594
45.820702 204.06 594
46.498299 204.06 594
47.1759 204.06 594
-12.2835 253.451 586
-11.6151 253.451 586
-10.9466 253.451 586
-10.2781 253.451 586
-9.6096897 253.451 586
-8.9412403 253.451 586
-8.2727804 253.451 586
31.671 246.312 571
32.3223 246.312 571
4.4505301 225.186 589
5.1224098 225.186 589
6.4661598 225.186 589
7.1380401 225.186 589
7.8099198 225.186 589
8.4817896 225.186 589
-7.6043301 236.07201 586
-3.5936 236.07201 586
-2.9251399 236.07201 586
3.7594099 236.07201 586
4.4278598 236.07201 586
5.0963202 236.07201 586
5.76477 236.07201 586
10.5331 241.457 591
11.2072 241.457 591
0.42069101 223.92799 591
1.0948499 223.92799 591
1.7690099 223.92799 591
11.1124 227.382 586
11.7809 227.382 586
12.4493 227.382 586
13.1178 227.382 586
13.7862 227.382 586
14.4547 227.382 586
-0.90722197 259.22198 578
-0.24789201 259.22198 578
0.411437 259.22198 578
1.07077 259.22198 578
49.457199 193.51401 597
50.138199 193.51401 597
48.449402 205.069 593
45.2192 203.72501 595
-6.2888098 234.86501 588
-5.6180701 234.86501 588
-4.94734 234.86501 588
-4.2765999 234.86501 588
5.7844501 234.86501 588
6.4551802 234.86501 588
7.1259198 234.86501 588
38.786301 266.73499 580
39.447899 266.73499 580
9.1381302 226.145 588
19.1992 226.145 588
19.8699 226.145 588
20.5406 226.145 588
21.211399 226.145 588
21.882099 226.145 588
22.5529 226.145 588
-14.3133 253.214 587
1.76601 224.896 590
2.4390299 224.896 590
3.1120501 224.896 590
3.7850699 224.896 590
4.4580898 224.896 590
5.1311002 224.896 590
5.8041201 224.896 590
50.053101 199.987 588
50.723801 199.987 588
39.379902 267.59601 579
40.040401 267.59601 579
-8.2868996 235.80499 587
-7.61731 235.80499 587
-6.94771 235.80499 587
-4.26933 235.80499 587
-3.59973 235.80499 587
6.4442101 235.80499 587
7.1138 235.80499 587
-13.5739 237.92999 584
10.4618 227.10001 587
11.1314 227.10001 587
11.801 227.10001 587
12.4706 227.10001 587
13.1402 227.10001 587
13.8098 227.10001 587
14.4794 227.10001 587
15.149 227.10001 587
15.8185 227.10001 587
16.4881 227.10001 587
37.012199 204.73801 594
37.6898 204.73801 594
45.1432 204.73801 594
45.820702 204.73801 594
46.498299 204.73801 594
47.1759 204.73801 594
-12.2835 254.12 586
-11.6151 254.12 586
-10.9466 254.12 586
31.671 246.964 571
32.3223 246.964 571
32.973701 246.964 571
4.4505301 225.858 589
5.1224098 225.858 589
5.7942801 225.858 589
6.4661598 225.858 589
-7.6043301 236.74001 586
-6.9358702 236.74001 586
-4.2620502 236.74001 586
-2.9251399 236.74001 586
-2.25669 236.74001 586
3.7594099 236.74001 586
4.4278598 236.74001 586
5.0963202 236.74001 586
5.76477 236.74001 586
10.5331 242.131 591
11.2072 242.131 591
11.1124 228.05 586
11.7809 228.05 586
12.4493 228.05 586
13.1178 228.05 586
13.7862 228.05 586
14.4547 228.05 586
15.1231 228.05 586
15.7916 228.05 586
-0.90722197 259.88101 578
-0.24789201 259.88101 578
0.411437 259.88101 578
1.07077 259.88101 578
-0.92762601 224.603 591
-0.25346801 224.603 591
0.42069101 224.603 591
1.0948499 224.603 591
49.457199 194.19501 597
50.138199 194.19501 597
-6.2888098 235.536 588
-5.6180701 235.536 588
-4.94734 235.536 588
7.1259198 235.536 588
35.717098 204.40401 595
44.540401 204.40401 595
45.2192 204.40401 595
37.4631 267.397 580
38.124699 267.397 580
38.786301 267.397 580
39.447899 267.397 580
9.1381302 226.81599 588
9.8088703 226.81599 588
18.5284 226.81599 588
19.1992 226.81599 588
20.5406 226.81599 588
21.211399 226.81599 588
21.882099 226.81599 588
22.5529 226.81599 588
-14.2645 237.67101 585
-13.6437 253.884 587
-12.9741 253.884 587
1.76601 225.569 590
2.4390299 225.569 590
3.1120501 225.569 590
3.7850699 225.569 590
50.053101 200.657 588
50.723801 200.657 588
-6.8648601 258.79599 580
-6.2032499 258.79599 580
-5.5416398 258.79599 580
-8.2868996 236.474 587
-6.94771 236.474 587
-6.27811 236.474 587
-5.60852 236.474 587
-4.93892 236.474 587
-4.26933 236.474 587
6.4442101 236.474 587
7.1138 236.474 587
7.7834001 236.474 587
-13.5739 238.597 584
-1.6045001 224.30701 592
-0.929196 224.30701 592
10.4618 227.77 587
15.149 227.77 587
15.8185 227.77 587
16.4881 227.77 587
17.1577 227.77 587
17.827299 227.77 587
45.820702 205.41499 594
46.498299 205.41499 594
47.1759 205.41499 594
47.8535 205.41499 594
35.7771 204.067 596
36.456902 204.067 596
-4.8716102 259.67001 579
-4.2111402 259.67001 579
-3.5506699 259.67001 579
-2.8901999 259.67001 579
-2.2297299 259.67001 579
-1.56926 259.67001 579
3.77865 226.53 589
4.4505301 226.53 589
5.1224098 226.53 589
6.4661598 226.53 589
7.1380401 226.53 589
7.8099198 226.53 589
8.4817896 226.53 589
-7.6043301 237.408 586
-6.9358702 237.408 586
-6.2674198 237.408 586
-4.93051 237.408 586
-4.2620502 237.408 586
-3.5936 237.408 586
11.1124 228.718 586
11.7809 228.718 586
12.4493 228.718 586
13.1178 228.718 586
13.7862 228.718 586
14.4547 228.718 586
15.1231 228.718 586
-15.6791 253.646 588
-15.0084 253.646 588
-0.92762601 225.27699 591
1.0948499 225.27699 591
49.457199 194.87601 597
-6.2888098 236.20599 588
-5.6180701 236.20599 588
-4.94734 236.20599 588
35.717098 205.082 595
36.395802 205.082 595
38.124699 268.05801 580
38.786301 268.05801 580
9.8088703 227.487 588
17.187 227.487 588
17.8577 227.487 588
18.5284 227.487 588
19.1992 227.487 588
20.5406 227.487 588
21.211399 227.487 588
21.882099 227.487 588
22.5529 227.487 588
-14.2645 238.338 585
-13.6437 254.55299 587
-12.9741 254.55299 587
-7.5264702 259.457 580
-6.8648601 259.457 580
-6.2032499 259.457 580
-5.5416398 259.457 580
10.337 259.457 580
10.9986 259.457 580
11.6602 259.457 580
-6.27811 237.144 587
-5.60852 237.144 587
-4.93892 237.144 587
-3.59973 237.144 587
6.4442101 237.144 587
7.1138 237.144 587
45.974998 195.909 596
10.4618 228.439 587
16.4881 228.439 587
17.1577 228.439 587
17.827299 228.439 587
-1.6045001 224.983 592
-5.5320802 260.33099 579
-4.8716102 260.33099 579
-4.2111402 260.33099 579
-3.5506699 260.33099 579
-2.8901999 260.33099 579
-2.2297299 260.33099 579
-1.56926 260.33099 579
3.7145 260.33099 579
4.37497 260.33099 579
5.03544 260.33099 579
3.77865 227.202 589
4.4505301 227.202 589
8.4817896 227.202 589
19.9037 227.202 589
-7.6043301 238.077 586
-6.9358702 238.077 586
-6.2674198 238.077 586
31.504601 241.77901 568
32.1525 241.77901 568
32.8004 241.77901 568
49.466301 200.99899 589
14.4547 229.38699 586
15.1231 229.38699 586
-15.6791 254.31599 588
-15.0084 254.31599 588
-14.3376 254.31599 588
-0.92762601 225.951 591
1.0948499 225.951 591
54.587502 192.754 601
55.273102 192.754 601
55.958599 192.754 601
39.447899 268.72 580
40.109501 268.72 580
9.8088703 228.158 588
18.5284 228.158 588
19.1992 228.158 588
19.8699 228.158 588
20.5406 228.158 588
21.211399 228.158 588
21.882099 228.158 588
22.5529 228.158 588
-14.2645 239.005 585
-13.6437 255.22301 587
-12.9741 255.22301 587
-7.5264702 260.11899 580
-6.8648601 260.11899 580
-6.2032499 260.11899 580
-5.5416398 260.11899 580
3.7209101 260.11899 580
10.337 260.11899 580
10.9986 260.11899 580
11.6602 260.11899 580
5.8041201 226.91499 590
29.9772 262.92401 576
30.634199 262.92401 576
31.2913 262.92401 576
31.948299 262.92401 576
32.6054 262.92401 576
33.262402 262.92401 576
48.8773 200.66701 590
49.550301 200.66701 590
-5.60852 237.814 587
3.76582 237.814 587
4.43542 237.814 587
46.341801 199.321 592
47.017101 199.321 592
47.692402 199.321 592
45.820702 197.96201 594
46.498299 197.96201 594
45.2952 196.589 596
45.974998 196.589 596
46.6549 196.589 596
9.7921801 229.10899 587
10.4618 229.10899 587
15.8185 229.10899 587
16.4881 229.10899 587
17.1577 229.10899 587
17.827299 229.10899 587
-1.6045001 225.658 592
-6.1925502 260.991 579
-5.5320802 260.991 579
-4.8716102 260.991 579
-4.2111402 260.991 579
-3.5506699 260.991 579
-2.8901999 260.991 579
-2.2297299 260.991 579
-1.56926 260.991 579
-0.90879101 260.991 579
4.37497 260.991 579
5.03544 260.991 579
9.1536703 227.87399 589
19.9037 227.87399 589
-6.9358702 238.745 586
-6.2674198 238.745 586
-5.5989599 238.745 586
37.527699 268.51999 581
31.504601 242.427 568
32.1525 242.427 568
32.8004 242.427 568
50.138199 201.67101 589
-15.0084 254.987 588
-14.3376 254.987 588
54.587502 193.439 601
55.273102 193.439 601
55.958599 193.439 601
-20.3743 246.26801 588
-19.703501 246.26801 588
7.7966599 237.548 588
8.4673901 237.548 588
33.320202 262.72299 577
33.978401 262.72299 577
34.636501 262.72299 577
9.8088703 228.828 588
18.5284 228.828 588
19.1992 228.828 588
19.8699 228.828 588
20.5406 228.828 588
21.211399 228.828 588
21.882099 228.828 588
-7.5264702 260.78 580
-6.8648601 260.78 580
-6.2032499 260.78 580
3.0592999 260.78 580
-20.3396 247.188 587
-19.67 247.188 587
-19.000401 247.188 587
5.1311002 227.588 590
6.4771399 227.588 590
7.1501598 227.588 590
7.8231802 227.588 590
29.9772 263.58099 576
30.634199 263.58099 576
31.2913 263.58099 576
31.948299 263.58099 576
32.6054 263.58099 576
33.262402 263.58099 576
-5.60852 238.483 587
3.76582 238.483 587
4.43542 238.483 587
5.10501 238.483 587
48.8773 201.34 590
45.6665 199.99699 592
46.341801 199.99699 592
47.017101 199.99699 592
47.692402 199.99699 592
45.820702 198.63901 594
46.498299 198.63901 594
-2.2797899 226.33299 592
-1.6045001 226.33299 592
-3.5506699 261.65201 579
-2.8901999 261.65201 579
-2.2297299 261.65201 579
1.07262 261.65201 579
1.73309 261.65201 579
2.3935599 261.65201 579
11.1314 221.07401 587
11.801 221.07401 587
12.4706 221.07401 587
-19.737 246.01401 589
-19.065201 246.01401 589
-6.9358702 248.104 586
-6.2674198 248.104 586
8.4817896 228.54601 589
9.1536703 228.54601 589
38.190399 269.18301 581
38.853199 269.18301 581
-20.3743 246.938 588
-19.703501 246.938 588
-19.032801 246.938 588
54.587502 194.125 601
55.273102 194.125 601
55.958599 194.125 601
5.1137099 238.21899 588
5.7844501 238.21899 588
6.4551802 238.21899 588
7.1259198 238.21899 588
7.7966599 238.21899 588
28.712799 263.38101 577
29.371 263.38101 577
33.978401 263.38101 577
34.636501 263.38101 577
35.294701 263.38101 577
18.5284 229.49899 588
19.1992 229.49899 588
19.8699 229.49899 588
20.5406 229.49899 588
21.211399 229.49899 588
21.882099 229.49899 588
22.5529 229.49899 588
39.1875 213.34399 586
39.855999 213.34399 586
-19.0975 245.759 590
-18.4245 245.759 590
-17.751499 245.759 590
-7.5264702 261.44199 580
-6.8648601 261.44199 580
2.3976901 261.44199 580
3.0592999 261.44199 580
3.7209101 261.44199 580
-20.3396 247.85699 587
-19.67 247.85699 587
-19.000401 247.85699 587
-18.330799 247.85699 587
-17.6612 247.85699 587
29.9772 264.23801 576
30.634199 264.23801 576
31.2913 264.23801 576
31.948299 264.23801 576
32.6054 264.23801 576
33.262402 264.23801 576
33.919498 264.23801 576
4.4580898 228.261 590
5.1311002 228.261 590
7.1501598 228.261 590
7.8231802 228.261 590
8.4961901 228.261 590
3.76582 239.153 587
4.43542 239.153 587
50.896301 202.013 590
51.569302 202.013 590
52.242401 202.013 590
45.6665 200.672 592
46.341801 200.672 592
47.017101 200.672 592
47.692402 200.672 592
45.820702 199.317 594
46.498299 199.317 594
-3.5506699 262.31201 579
-2.8901999 262.31201 579
1.07262 262.31201 579
1.73309 262.31201 579
2.3935599 262.31201 579
10.4618 221.743 587
11.1314 221.743 587
11.801 221.743 587
12.4706 221.743 587
13.1402 221.743 587
13.8098 221.743 587
14.4794 221.743 587
15.149 221.743 587
-19.065201 246.686 589
-18.393299 246.686 589
-6.9358702 248.772 586
-6.2674198 248.772 586
39.924 213.03799 587
40.593601 213.03799 587
41.263199 213.03799 587
41.9328 213.03799 587
9.1536703 229.218 589
5.8139601 227.97301 591
48.285999 201.681 591
-18.362101 247.60899 588
38.302799 200.334 593
5.7844501 238.88901 588
28.712799 264.039 577
29.371 264.039 577
33.978401 264.039 577
34.636501 264.039 577
35.294701 264.039 577
39.1875 214.01199 586
39.855999 214.01199 586
40.524399 214.01199 586
41.192902 214.01199 586
41.861401 214.01199 586
18.5284 230.17 588
19.1992 230.17 588
20.5406 230.17 588
21.211399 230.17 588
21.882099 230.17 588
22.5529 230.17 588
9.8088703 221.45 588
10.4796 221.45 588
-7.5264702 262.104 580
-6.8648601 262.104 580
-6.2032499 262.104 580
-5.5416398 262.104 580
-4.8800302 262.104 580
-4.21842 262.104 580
9.6754103 262.104 580
10.337 262.104 580
10.9986 262.104 580
11.6602 262.104 580
-18.4245 246.43201 590
-17.751499 246.43201 590
-17.078501 246.43201 590
-19.000401 248.52699 587
-18.330799 248.52699 587
30.634199 264.89499 576
7.8231802 228.93401 590
50.223301 202.686 590
50.896301 202.686 590
51.569302 202.686 590
52.242401 202.686 590
31.560101 243.502 569
32.209099 243.502 569
32.8582 243.502 569
47.017101 201.347 592
47.692402 201.347 592
48.367699 201.347 592
37.592201 269.646 582
-3.5506699 262.97299 579
-2.8901999 262.97299 579
1.07262 262.97299 579
1.73309 262.97299 579
2.3935599 262.97299 579
11.1314 222.41299 587
11.801 222.41299 587
12.4706 222.41299 587
13.1402 222.41299 587
13.8098 222.41299 587
14.4794 222.41299 587
15.149 222.41299 587
15.8185 222.41299 587
16.4881 222.41299 587
-18.393299 247.358 589
-17.721399 247.358 589
-16.377701 247.358 589
-15.7058 247.358 589
-6.9358702 249.44099 586
-6.2674198 249.44099 586
40.593601 213.70799 587
41.263199 213.70799 587
16.8654 246.92599 577
17.5236 246.92599 577
6.4881201 228.64799 591
49.6343 202.355 591
-17.020599 248.28 588
-16.349899 248.28 588
-15.6791 248.28 588
12.4493 223.371 586
13.1178 223.371 586
14.4547 223.371 586
15.1231 223.371 586
15.7916 223.371 586
16.4601 223.371 586
38.302799 201.011 593
38.979198 201.011 593
28.712799 264.69699 577
29.371 264.69699 577
34.636501 264.69699 577
35.294701 264.69699 577
39.1875 214.681 586
39.855999 214.681 586
40.524399 214.681 586
41.192902 214.681 586
41.861401 214.681 586
42.5298 214.681 586
43.198299 214.681 586
43.866699 214.681 586
20.5406 230.841 588
21.211399 230.841 588
9.1381302 222.121 588
9.8088703 222.121 588
17.187 222.121 588
17.8577 222.121 588
-8.1880798 262.76501 580
-7.5264702 262.76501 580
-6.8648601 262.76501 580
-6.2032499 262.76501 580
-5.5416398 262.76501 580
-4.8800302 262.76501 580
-4.21842 262.76501 580
9.6754103 262.76501 580
10.337 262.76501 580
10.9986 262.76501 580
-17.751499 247.105 590
-17.078501 247.105 590
-19.000401 249.19701 587
-18.330799 249.19701 587
-17.6612 249.19701 587
-16.9916 249.19701 587
-16.3221 249.19701 587
7.8231802 229.60699 590
8.4961901 229.60699 590
17.554001 246.69501 578
18.213301 246.69501 578
32.209099 244.151 569
32.8582 244.151 569
33.507198 244.151 569
34.1563 244.151 569
7.7834001 240.492 587
50.896301 203.35899 590
51.569302 203.35899 590
52.242401 203.35899 590
47.692402 202.022 592
34.301899 200.672 594
34.979401 200.672 594
35.657001 200.672 594
11.1314 223.082 587
11.801 223.082 587
12.4706 223.082 587
13.1402 223.082 587
13.8098 223.082 587
14.4794 223.082 587
15.149 223.082 587
15.8185 223.082 587
16.4881 223.082 587
17.1577 223.082 587
-7.6043301 250.10899 586
-6.9358702 250.10899 586
-6.2674198 250.10899 586
-17.721399 248.03 589
-17.0495 248.03 589
-16.377701 248.03 589
-15.7058 248.03 589
-15.0339 248.03 589
6.4661598 239.29601 589
7.1380401 239.29601 589
7.8099198 239.29601 589
42.602402 214.37801 587
43.271999 214.37801 587
43.941601 214.37801 587
16.8654 247.584 577
17.5236 247.584 577
18.181801 247.584 577
18.84 247.584 577
19.9037 230.561 589
5.7942801 221.827 589
6.4661598 221.827 589
7.1380401 221.827 589
7.8099198 221.827 589
8.4817896 221.827 589
9.1536703 221.827 589
-9.6096897 232.729 586
-8.9412403 232.729 586
-8.2727804 232.729 586
7.1622801 229.32201 591
49.6343 203.03 591
-17.691299 248.95 588
-17.020599 248.95 588
-16.349899 248.95 588
-15.6791 248.95 588
12.4493 224.039 586
13.1178 224.039 586
13.7862 224.039 586
14.4547 224.039 586
15.1231 224.039 586
15.7916 224.039 586
16.4601 224.039 586
38.302799 201.687 593
38.979198 201.687 593
28.712799 265.35501 577
29.371 265.35501 577
30.0292 265.35501 577
31.3456 265.35501 577
32.003799 265.35501 577
32.661999 265.35501 577
8.4673901 240.231 588
39.1875 215.349 586
39.855999 215.349 586
40.524399 215.349 586
41.192902 215.349 586
41.861401 215.349 586
42.5298 215.349 586
43.198299 215.349 586
43.866699 215.349 586
20.5406 231.511 588
21.211399 231.511 588
9.8088703 222.79201 588
10.4796 222.79201 588
17.187 222.79201 588
17.8577 222.79201 588
-8.1880798 263.427 580
-7.5264702 263.427 580
-6.8648601 263.427 580
-6.2032499 263.427 580
-5.5416398 263.427 580
-4.8800302 263.427 580
9.6754103 263.427 580
10.337 263.427 580
10.9986 263.427 580
42.0042 214.07201 588
42.674999 214.07201 588
-17.078501 247.778 590
8.4961901 239.02901 590
9.1692104 239.02901 590
-19.000401 249.866 587
-18.330799 249.866 587
-16.3221 249.866 587
-15.6525 249.866 587
18.213301 247.354 578
32.8582 244.80099 569
33.507198 244.80099 569
34.1563 244.80099 569
8.4529896 241.162 587
48.367699 202.698 592
49.042999 202.698 592
-8.2868996 232.457 587
-7.61731 232.457 587
-6.94771 232.457 587
5.8238001 229.034 592
34.301899 201.35001 594
34.979401 201.35001 594
35.657001 201.35001 594
36.334599 201.35001 594
37.012199 201.35001 594
37.6898 201.35001 594
9.7921801 223.752 587
10.4618 223.752 587
11.1314 223.752 587
11.801 223.752 587
13.8098 223.752 587
17.1577 223.752 587
17.827299 223.752 587
-12.9078 234.60001 584
-12.2416 234.60001 584
-11.5754 234.60001 584
-10.9092 234.60001 584
-12.952 250.778 586
-12.2835 250.778 586
-11.6151 250.778 586
-10.9466 250.778 586
-10.2781 250.778 586
-15.0339 248.702 589
16.8654 248.242 577
17.5236 248.242 577
18.181801 248.242 577
18.84 248.242 577
5.1224098 239.968 589
5.7942801 239.968 589
6.4661598 239.968 589
8.4817896 239.968 589
18.559999 231.233 589
19.2318 231.233 589
19.9037 231.233 589
5.1224098 222.49899 589
6.4661598 222.49899 589
7.1380401 222.49899 589
7.8099198 222.49899 589
8.4817896 222.49899 589
18.559999 222.49899 589
19.2318 222.49899 589
42.747501 213.76401 589
43.419399 213.76401 589
44.091301 213.76401 589
-10.9466 233.39799 586
-10.2781 233.39799 586
-9.6096897 233.39799 586
-8.9412403 233.39799 586
-8.2727804 233.39799 586
7.1622801 229.996 591
-12.2206 235.528 583
-11.5556 235.528 583
49.6343 203.70399 591
50.308399 203.70399 591
-15.6791 249.621 588
-15.0084 249.621 588
12.4493 224.70799 586
13.1178 224.70799 586
13.7862 224.70799 586
14.4547 224.70799 586
15.1231 224.70799 586
15.7916 224.70799 586
16.4601 224.70799 586
28.712799 266.013 577
29.371 266.013 577
30.0292 266.013 577
30.687401 266.013 577
31.3456 266.013 577
32.003799 266.013 577
38.302799 202.364 593
38.979198 202.364 593
39.655602 202.364 593
6.4551802 240.90199 588
7.1259198 240.90199 588
8.4673901 240.90199 588
9.1381302 240.90199 588
36.395802 201.00999 595
37.074501 201.00999 595
39.1875 216.01801 586
39.855999 216.01801 586
40.524399 216.01801 586
41.192902 216.01801 586
41.861401 216.01801 586
42.5298 216.01801 586
43.198299 216.01801 586
43.866699 216.01801 586
9.1381302 223.46201 588
9.8088703 223.46201 588
10.4796 223.46201 588
17.8577 223.46201 588
-8.1880798 264.08899 580
-7.5264702 264.08899 580
-6.8648601 264.08899 580
-12.1997 236.452 582
-11.5358 236.452 582
8.4961901 239.702 590
9.1692104 239.702 590
9.8422298 239.702 590
-7.61731 233.12601 587
-6.94771 233.12601 587
-6.27811 233.12601 587
36.737999 264.95401 579
37.398499 264.95401 579
38.058899 264.95401 579
49.042999 203.373 592
34.301899 202.02699 594
34.979401 202.02699 594
37.6898 202.02699 594
43.787998 202.02699 594
44.465599 202.02699 594
45.1432 202.02699 594
5.1485 229.71001 592
5.8238001 229.71001 592
6.4991002 229.71001 592
9.7921801 224.422 587
10.4618 224.422 587
11.1314 224.422 587
11.801 224.422 587
17.1577 224.422 587
17.827299 224.422 587
-13.5739 235.26601 584
-12.9078 235.26601 584
-12.2416 235.26601 584
-11.5754 235.26601 584
-10.9092 235.26601 584
-10.2431 235.26601 584
-9.5768995 235.26601 584
-13.6204 251.446 586
-12.952 251.446 586
-12.2835 251.446 586
-11.6151 251.446 586
-10.9466 251.446 586
-10.2781 251.446 586
-15.0339 249.37399 589
16.8654 248.901 577
17.5236 248.901 577
18.181801 248.901 577
4.4505301 240.63901 589
5.1224098 240.63901 589
5.7942801 240.63901 589
6.4661598 240.63901 589
7.1380401 240.63901 589
7.8099198 240.63901 589
9.1536703 240.63901 589
4.4505301 223.17101 589
5.7942801 223.17101 589
6.4661598 223.17101 589
7.1380401 223.17101 589
7.8099198 223.17101 589
8.4817896 223.17101 589
9.1536703 223.17101 589
18.559999 223.17101 589
19.2318 223.17101 589
43.419399 214.436 589
44.091301 214.436 589
