# .PCD v0.7 - Point Cloud Data file format
VERSION 0.7
FIELDS x y z
SIZE 4 4 4
TYPE F F F
COUNT 1 1 1
WIDTH 2003
HEIGHT 1
VIEWPOINT 0 0 0 1 0 0 0
POINTS 2003
DATA ascii
221.83 -81.612602 1354
223.375 -81.612602 1354
224.91901 -81.612602 1354
226.464 -81.612602 1354
228.008 -81.612602 1354
229.55299 -81.612602 1354
231.097 -81.612602 1354
235.731 -81.612602 1354
237.27499 -81.612602 1354
238.82001 -81.612602 1354
240.364 -81.612602 1354
266.21399 -23.428699 1384
259.15302 -58.707298 1397
182.13499 -67.311897 1346
185.205 -67.311897 1346
205.16499 -67.311897 1346
222.05499 -67.311897 1346
189.884 14.4192 1380
215.07001 14.4192 1380
229.23801 14.4192 1380
182.105 14.6804 1405
183.707 14.6804 1405
244.61 14.6804 1405
214.44701 -114.331 1376
258.026 -43.6595 1426
151.539 -50.459999 1347
205.31799 -50.459999 1347
206.854 -50.459999 1347
213.00101 -50.459999 1347
214.537 -50.459999 1347
165.05499 -13.9462 1383
212.526 -39.615799 1344
257.854 -18.7736 1390
224.42101 -44.445499 1351
170.623 -45.612099 1340
213.422 -45.612099 1340
273.90701 -45.761398 1391
235.418 -35.551201 1427
157.44901 -22.5485 1332
187.83701 -22.5485 1332
189.35699 -22.5485 1332
158.491 -28.540199 1328
160.006 -28.540199 1328
164.55 -28.540199 1328
169.095 -28.540199 1328
170.61 -28.540199 1328
172.125 -28.540199 1328
255.666 -47.077301 1431
186.856 3.3457899 1358
208.009 38.472801 1396
209.60201 38.472801 1396
211.194 38.472801 1396
164.877 -56.438 1343
229.22 -56.438 1343
170.11301 -16.520201 1336
182.343 -85.014397 1359
183.894 -85.014397 1359
185.444 -85.014397 1359
186.994 -85.014397 1359
188.54401 -85.014397 1359
205.597 -85.014397 1359
207.147 -85.014397 1359
208.69701 -85.014397 1359
210.24699 -85.014397 1359
213.34801 -85.014397 1359
222.649 -85.014397 1359
224.19901 -85.014397 1359
245.903 -85.014397 1359
290.95801 -50.517899 1436
175.569 6.66223 1404
212.405 6.66223 1404
214.006 6.66223 1404
218.811 6.66223 1404
220.412 6.66223 1404
177.733 -51.571899 1336
188.401 -51.571899 1336
192.19299 -95.356796 1374
240.78 -95.356796 1374
244.63499 3.43941 1396
253.882 9.9215498 1412
181.45799 -88.439102 1364
183.01401 -88.439102 1364
256.08401 -9.2533903 1389
235.384 -11.0563 1417
195.718 -64.670601 1355
200.355 -64.670601 1355
249.81599 -64.670601 1355
257.54401 -64.670601 1355
278.82999 -19.124701 1416
170.006 1.86683 1411
216.683 1.86683 1411
258.53101 1.86683 1411
189.23801 8.0283499 1364
208.976 -110.788 1371
182.65601 1.81655 1373
212.10899 18.878201 1361
147.89101 -27.1817 1415
170.623 -10.4555 1340
159.69501 -70.644096 1351
165.85899 -70.644096 1351
167.39999 -70.644096 1351
168.94099 -70.644096 1351
196.681 -70.644096 1351
227.50301 -70.644096 1351
236.75 -70.644096 1351
239.832 -70.644096 1351
241.373 -70.644096 1351
172.243 -1.3445899 1403
201.05 -1.3445899 1403
253.50301 -60.9198 1375
262.914 -60.9198 1375
264.48199 -60.9198 1375
270.11401 -49.110699 1396
199.90401 30.4888 1395
205.27 -6.1764898 1410
267.99799 -6.1764898 1410
179.901 0.253093 1388
233.73399 0.253093 1388
235.317 0.253093 1388
196.44 -94.385201 1360
260.07999 -26.931999 1402
151.71201 -33.259201 1335
176.078 -33.259201 1335
185.215 -33.259201 1335
205.01199 -33.259201 1335
280.36899 -85.685898 1449
211.043 12.9847 1395
186.10001 9.7458897 1387
203.504 9.7458897 1387
235.147 9.7458897 1387
222.23801 -107.267 1366
257.798 -47.8927 1407
259.40302 -47.8927 1407
281.87201 -47.8927 1407
153.692 -14.2084 1409
274.237 -14.2084 1409
213.187 15.9702 1378
262.121 -43.261501 1413
192.28999 19.225 1386
183.806 -76.5811 1347
206.854 -76.5811 1347
222.22 -76.5811 1347
173.901 -20.997499 1330
183.004 -20.997499 1330
206.534 -68.284599 1335
212.62601 -68.284599 1335
190.09399 -59.723499 1348
233.14799 -59.723499 1348
266.28699 -52.482899 1401
268.953 -53.656399 1390
239.28999 -9.3399897 1402
263.27899 -9.3399897 1402
216.767 -103.77 1361
172.90199 -14.9738 1334
182.032 -14.9738 1334
140.177 -47.703602 1356
141.724 -47.703602 1356
152.16499 -22.023701 1395
153.757 -22.023701 1395
146.384 -38.0261 1342
183.12399 -38.0261 1342
177.28999 -2.8967199 1380
245.36 -73.999199 1356
246.907 -73.999199 1356
202.049 -100.295 1356
209.783 -100.295 1356
211.33 -100.295 1356
246.375 -54.804798 1379
289.336 -30.517401 1420
152.84801 -48.8508 1345
171.259 -48.8508 1345
172.79401 -48.8508 1345
197.342 -48.8508 1345
198.87601 -48.8508 1345
229.561 -48.8508 1345
144.07001 -42.8409 1349
219.472 -42.8409 1349
177.99899 -44.017799 1338
190.21001 -44.017799 1338
202.42 -44.017799 1338
203.946 -44.017799 1338
211.577 -44.017799 1338
266.983 -17.1632 1388
146.82001 -31.997801 1346
217.99899 20.4007 1359
285.465 -34.9035 1401
282.651 -39.527802 1395
190.51401 9.57022 1362
192.06799 9.57022 1362
148.675 -26.1828 1363
213.701 8.2520103 1402
216.89999 8.2520103 1402
218.49899 8.2520103 1402
247.286 8.2520103 1402
182.578 -8.9136295 1338
155.453 -54.824299 1341
163.10201 -54.824299 1341
218.17101 -54.824299 1341
227.349 -54.824299 1341
179.862 -79.949799 1352
227.67101 -79.949799 1352
177.467 -49.973 1334
186.59801 -49.973 1334
221.864 32.0341 1393
172.98 3.4714401 1409
216.37601 3.4714401 1409
222.80499 3.4714401 1409
264.957 -12.467 1394
228.586 -33.8759 1425
219.06599 -1.35704 1416
225.52699 -1.35704 1416
166.142 -10.6584 1366
191.07401 -10.6584 1366
151.119 -9.4266005 1415
207.612 -9.4266005 1415
182.075 -83.3414 1357
183.623 -83.3414 1357
189.815 -83.3414 1357
191.36301 -83.3414 1357
202.198 -83.3414 1357
225.41701 -83.3414 1357
226.965 -83.3414 1357
243.993 -83.3414 1357
150.414 -25.683399 1337
205.77901 -71.597504 1340
190.799 -63.031799 1353
192.342 -63.031799 1353
193.88499 -63.031799 1353
241.73 -63.031799 1353
153.005 -31.688801 1333
175.814 -31.688801 1333
181.896 -31.688801 1333
183.41701 -31.688801 1333
184.937 -31.688801 1333
186.45799 -31.688801 1333
187.978 -31.688801 1333
201.66299 -31.688801 1333
203.18401 -31.688801 1333
188.494 14.5551 1393
210.74001 14.5551 1393
240.897 -57.026402 1357
187.412 11.3117 1385
225.32899 11.3117 1385
176.66901 -19.451 1328
264.405 -4.5616102 1408
191.353 14.2938 1368
175.68201 -13.4319 1332
177.201 -13.4319 1332
165.614 -69.000702 1349
170.23 -69.000702 1349
171.769 -69.000702 1349
202.545 -69.000702 1349
225.627 -69.000702 1349
236.399 -69.000702 1349
237.938 -69.000702 1349
239.47701 -69.000702 1349
208.39 21.9186 1357
190.34801 -93.652901 1372
241.995 -93.652901 1372
187.979 17.8349 1401
250.002 -59.264999 1373
271.31699 -47.450199 1394
163.86099 -15.4116 1373
234.576 -2.92401 1393
240.14301 -12.5833 1407
289.31699 -33.566799 1412
271.53699 -25.061701 1387
150.33701 -52.112301 1350
215.015 -52.112301 1350
271.54099 -92.1063 1446
225.849 -109.064 1369
227.411 -109.064 1369
213.651 -29.679199 1381
159.099 -7.7296801 1400
238.948 -7.7296801 1400
240.545 -7.7296801 1400
261.306 -7.7296801 1400
199.24899 -92.697304 1358
227.133 -92.697304 1358
220.19501 -96.148201 1363
221.75 -96.148201 1363
235.743 -96.148201 1363
154.87399 -42.428001 1336
170.11301 -42.428001 1336
149.89101 -58.099499 1346
166.78101 -58.099499 1346
171.38699 -58.099499 1346
174.45799 -58.099499 1346
206.299 -24.826799 1374
185.06799 -74.933098 1345
186.60201 -74.933098 1345
220.356 -74.933098 1345
258.41101 -20.403099 1393
172.537 -47.246201 1343
221.56 -47.246201 1343
224.62399 -47.246201 1343
211.799 9.8372297 1400
218.187 9.8372297 1400
221.381 9.8372297 1400
266.578 -41.590698 1411
159.089 -15.5575 1386
240.759 6.6052899 1392
257.61499 -20.5935 1406
247.99899 -60.3438 1362
274.89899 -51.995899 1388
248.34399 13.1057 1408
160.049 -72.345497 1354
161.59399 -72.345497 1354
231.097 -72.345497 1354
234.186 -72.345497 1354
243.453 -72.345497 1354
244.998 -72.345497 1354
246.54201 -72.345497 1354
213.741 -64.050201 1342
156.74899 -53.215099 1339
176.605 -53.215099 1339
191.879 -53.215099 1339
193.407 -53.215099 1339
194.93401 -53.215099 1339
220.89999 -53.215099 1339
222.427 -53.215099 1339
269.099 -50.812099 1399
229.366 27.4041 1400
266.95599 -86.780701 1413
178.72099 -48.3787 1332
183.27901 -48.3787 1332
184.798 -48.3787 1332
258.37799 -20.783899 1419
237.968 -6.0669799 1385
211.586 -12.6995 1420
203.092 26.679899 1363
204.647 26.679899 1363
215.53101 26.679899 1363
167.455 -9.0868397 1364
195.875 -24.122101 1335
283.461 -33.257801 1399
226.41701 22.322399 1382
154.29401 -30.122999 1331
155.812 -30.122999 1331
175.55 -30.122999 1331
184.66 -30.122999 1331
192.25101 -30.122999 1331
193.769 -30.122999 1331
195.28799 -30.122999 1331
196.806 -30.122999 1331
225.686 -36.9184 1417
214.89799 -102.067 1359
166.718 -13.6941 1358
203.29601 -98.602303 1354
204.84 -98.602303 1354
206.38499 -98.602303 1354
207.929 -98.602303 1354
255.131 -49.603298 1410
174.339 5.0714898 1407
216.06799 5.0714898 1407
219.278 5.0714898 1407
220.883 5.0714898 1407
159.77699 -10.8612 1392
184.89799 -2.84424 1355
173.436 -78.291603 1350
179.59599 -78.291603 1350
184.216 -78.291603 1350
208.855 -78.291603 1350
225.795 -78.291603 1350
162.30299 0.25783399 1414
218.756 0.25783399 1414
146.845 -28.5923 1405
260.63699 -28.5923 1405
227.60699 1.85095 1399
198.606 9.6615696 1375
215.23199 29.9643 1371
147.802 -29.120501 1355
154.129 -7.8014498 1413
234.72 -7.8014498 1413
271.79199 -7.8014498 1413
252.05499 -55.361198 1393
199.188 25.622801 1390
203.084 -2.9512999 1406
203.66901 36.959702 1399
212.72 -55.396702 1355
214.26601 -55.396702 1355
238.996 -55.396702 1355
192.058 -61.397499 1351
216.715 -61.397499 1351
218.256 -61.397499 1351
238.291 -61.397499 1351
253.879 -48.369301 1421
208.783 -15.8493 1412
276.431 -15.8493 1412
210.13499 35.111 1389
243.759 -1.3330899 1391
149 -34.860199 1338
182.578 -34.860199 1338
206.99899 -34.860199 1338
169.47301 -12.0109 1343
271.341 -32.9487 1386
181.80701 -81.672897 1355
191.08099 -81.672897 1355
198.80901 -81.672897 1355
214.26601 -81.672897 1355
215.811 -81.672897 1355
217.35699 -81.672897 1355
218.903 -81.672897 1355
232.813 -81.672897 1355
234.35899 -81.672897 1355
242.08701 -81.672897 1355
148.83099 -24.1059 1424
160.758 -67.3619 1347
162.295 -67.3619 1347
171.51401 -67.3619 1347
173.05099 -67.3619 1347
174.58701 -67.3619 1347
176.12399 -67.3619 1347
177.66 -67.3619 1347
179.19701 -67.3619 1347
180.733 -67.3619 1347
256.14301 -79.1035 1364
260.93301 -58.749401 1398
262.52802 -58.749401 1398
264.12201 -58.749401 1398
150.692 -23.885799 1411
157.685 -40.8428 1334
159.207 -40.8428 1334
166.815 -40.8428 1334
270.50101 -41.2076 1398
284.854 -41.2076 1398
267.048 -10.9627 1405
212.10899 28.193199 1361
162.061 -6.12393 1398
163.65601 -6.12393 1398
264.82599 -23.4457 1385
267.98599 -23.4457 1385
209.90199 11.4179 1398
211.49699 11.4179 1398
213.092 11.4179 1398
217.87601 11.4179 1398
219.47 11.4179 1398
150.114 -50.497501 1348
208.54601 -50.497501 1348
210.08299 -50.497501 1348
211.621 -50.497501 1348
218.21899 -37.528599 1380
198.57401 17.363899 1364
221.912 17.363899 1364
223.468 17.363899 1364
211.769 -28.0632 1379
197.145 28.9597 1398
204.433 -23.225599 1372
181.99899 -39.645302 1345
183.332 8.1813803 1390
211.95399 -85.077003 1360
215.056 -85.077003 1360
218.159 -85.077003 1360
238.827 8.1813803 1390
247.63499 -85.077003 1360
152.735 -56.480099 1344
175.731 -56.480099 1344
230.923 -56.480099 1344
152.394 -45.646198 1341
173.81 -45.646198 1341
193.69501 -45.646198 1341
199.814 -45.646198 1341
215.11099 -45.646198 1341
216.64101 -45.646198 1341
272.51599 -45.7943 1392
259.89899 -13.9563 1384
237.21201 -35.576099 1428
261.646 -35.576099 1428
156.04601 -22.565399 1333
191.019 -22.565399 1333
269.147 -18.7871 1391
157.09399 -28.561701 1329
161.642 -28.561701 1329
163.158 -28.561701 1329
166.19 -28.561701 1329
167.70599 -28.561701 1329
173.77 -28.561701 1329
241.784 -7.5198698 1362
243.338 -7.5198698 1362
145.60899 -33.608002 1349
159.565 -51.6105 1337
176.341 -51.6105 1337
190.067 -51.6105 1337
183.261 -73.289703 1343
218.496 -73.289703 1343
197.409 -64.718399 1356
251.547 -64.718399 1356
253.09399 -64.718399 1356
259.28101 -64.718399 1356
200.48399 27.169201 1388
257.58401 -104.011 1451
215.761 6.6669698 1405
217.364 6.6669698 1405
251.021 6.6669698 1405
221.972 -42.067501 1374
268.26801 -44.555801 1403
213.662 -94.454597 1361
164.44 -70.696404 1352
199.911 -70.696404 1352
229.214 -70.696404 1352
235.383 -70.696404 1352
243.09399 -70.696404 1352
244.636 -70.696404 1352
246.17799 -70.696404 1352
149.82201 -11.0641 1418
209.67 -11.0641 1418
272.922 -50.34 1386
179.474 3.44187 1397
246.40401 3.44187 1397
152.94901 -19.138201 1417
280.254 -36.241001 1391
193.45599 -16.693399 1350
268.71399 -14.0874 1397
265.52701 -31.616699 1397
281.46301 -31.616699 1397
168.51601 1.86815 1412
218.44701 1.86815 1412
145.245 -32.330601 1360
170.76401 -1.34554 1404
228.42 -1.34554 1404
182.30499 -33.2841 1336
218.48 -103.846 1362
195.875 0.25327501 1389
237.071 0.25327501 1389
240.24001 0.25327501 1389
174.717 -76.637901 1348
176.254 -76.637901 1348
177.79201 -76.637901 1348
179.33 -76.637901 1348
182.405 -76.637901 1348
185.481 -76.637901 1348
187.01801 -76.637901 1348
188.556 -76.637901 1348
223.922 -76.637901 1348
212.40601 -53.7715 1353
215.493 -53.7715 1353
237.10001 -53.7715 1353
239.38699 -7.59165 1375
240.955 -7.59165 1375
214.30901 -68.3358 1336
163.526 -39.2621 1332
165.04601 -39.2621 1332
213.034 -100.369 1357
191.77299 -59.767799 1349
193.312 -59.767799 1349
234.86 -59.767799 1349
248.63699 -74.053703 1357
264.19601 -26.7015 1390
253.683 -52.520401 1402
255.282 -52.520401 1402
256.88199 -52.520401 1402
264.87799 -52.520401 1402
272.52899 -31.322399 1384
274.10699 -31.322399 1384
185.715 12.994 1396
236.673 12.994 1396
225.817 9.7529097 1388
259.44501 -62.033798 1365
261.00201 -62.033798 1365
169.47701 -21.0133 1331
184.66 -21.0133 1331
171.384 -4.5227399 1396
272.668 -95.801102 1452
170.481 -27.004999 1327
171.995 -27.004999 1327
177.133 -38.054401 1343
190.847 19.238899 1387
152.16701 -44.050701 1339
175.078 -44.050701 1339
176.605 -44.050701 1339
191.879 -44.050701 1339
201.04401 -44.050701 1339
201.05 -9.3466501 1403
265.06699 -9.3466501 1403
178.931 -4.3575101 1345
157.451 -65.7276 1345
158.985 -65.7276 1345
160.52 -65.7276 1345
162.054 -65.7276 1345
183.533 -65.7276 1345
218.821 -65.7276 1345
263.41901 -38.616402 1420
185.17799 16.271601 1404
238.02901 16.271601 1404
190.209 12.7613 1371
221.46001 -30.5389 1421
258.96701 -22.039499 1396
256.759 -46.682499 1419
172.278 -80.009003 1353
181.53799 -80.009003 1353
184.625 -80.009003 1353
190.799 -80.009003 1353
192.342 -80.009003 1353
193.88499 -80.009003 1353
195.429 -80.009003 1353
196.972 -80.009003 1353
210.86301 -80.009003 1353
229.383 -80.009003 1353
230.92599 -80.009003 1353
234.013 -80.009003 1353
235.55701 -80.009003 1353
237.10001 -80.009003 1353
238.64301 -80.009003 1353
240.187 -80.009003 1353
256.37 -12.3597 1382
150.244 -22.4499 1422
174.26801 -2.8988199 1381
242.007 -2.8988199 1381
271.707 -39.556198 1396
154.03799 -54.8652 1342
164.754 -54.8652 1342
229.049 -54.8652 1342
266.47699 -34.928398 1402
254.214 -77.433899 1362
255.782 -57.072899 1396
211.642 -109.737 1358
199.15601 23.656799 1368
208.851 20.415701 1360
261.64499 -100.354 1446
175.444 8.2579002 1403
215.45399 8.2579002 1403
249.063 8.2579002 1403
185.30701 -83.402802 1358
186.856 -83.402802 1358
188.40601 -83.402802 1358
203.896 -83.402802 1358
217.838 -83.402802 1358
220.936 -83.402802 1358
224.034 -83.402802 1358
245.722 -83.402802 1358
179.217 5.0282302 1395
242.869 5.0282302 1395
211.15401 -112.679 1375
218.17101 -71.650902 1341
193.478 3.38028 1372
252.093 11.5241 1411
195.573 -63.0784 1354
243.453 -63.0784 1354
244.998 -63.0784 1354
246.54201 -63.0784 1354
156.939 -12.4759 1395
177.467 -31.712601 1334
251.291 -86.819504 1363
218.138 3.4739001 1410
219.746 3.4739001 1410
221.354 3.4739001 1410
256.73901 3.4739001 1410
200.89301 -25.7026 1338
266.09601 -1.358 1417
161.116 -69.051903 1350
162.65601 -69.051903 1350
164.196 -69.051903 1350
167.276 -69.051903 1350
168.81599 -69.051903 1350
191.916 -69.051903 1350
193.45599 -69.051903 1350
194.995 -69.051903 1350
227.33501 -69.051903 1350
235.034 -69.051903 1350
241.194 -69.051903 1350
242.73399 -69.051903 1350
244.274 -69.051903 1350
245.814 -69.051903 1350
235.147 1.83507 1387
165.534 -15.2769 1361
265.147 -29.980101 1395
210.841 -17.497101 1415
256.035 -17.497101 1415
193.048 25.8624 1403
269.483 -42.8941 1401
200.907 0.25564599 1402
228.095 0.25564599 1402
178.31799 -19.4657 1329
179.834 -19.4657 1329
181.35001 -19.4657 1329
192.612 17.5294 1377
248.436 -6.01441 1373
289.897 -38.262901 1407
264.67499 -78.229797 1376
230.235 11.3199 1386
156.907 -4.5648499 1409
209.302 14.5655 1394
174.293 -13.442 1333
178.855 -13.442 1333
180.375 -13.442 1333
161.692 -19.656099 1342
299.73901 -37.283199 1431
196.295 -92.765602 1359
197.84599 -92.765602 1359
210.24699 -92.765602 1359
228.85001 -92.765602 1359
230.39999 -92.765602 1359
231.951 -92.765602 1359
192.151 20.791 1385
276.28601 -47.484299 1395
195.46201 -96.218697 1364
213.633 -52.151001 1351
235.20799 -52.151001 1351
207.901 -66.7118 1334
210.94501 -66.7118 1334
170.60899 -9.0068998 1352
168.44099 -58.1427 1347
169.978 -58.1427 1347
232.97501 -58.1427 1347
205.44501 21.934799 1358
206.995 21.934799 1358
176.869 -36.467999 1341
182.98801 -36.467999 1341
153.58299 -12.5922 1408
238.70799 -12.5922 1408
231.564 -2.92611 1394
253.826 -2.92611 1394
182.13499 -74.9888 1346
188.276 -74.9888 1346
222.05499 -74.9888 1346
263.81601 -25.0798 1388
179.392 -7.3818402 1337
153.464 -42.459801 1337
187.017 -42.459801 1337
202.26801 -42.459801 1337
203.79401 -42.459801 1337
205.319 -42.459801 1337
206.84399 -42.459801 1337
208.369 -42.459801 1337
209.894 -42.459801 1337
195.662 -47.281399 1344
197.19501 -47.281399 1344
198.728 -47.281399 1344
226.32401 -47.281399 1344
227.85699 -47.281399 1344
143.963 -41.2714 1348
216.23399 -41.2714 1348
148.246 -30.4398 1345
166.271 -10.7676 1380
264.03 -46.254902 1406
265.634 -46.254902 1406
273.45801 -71.865097 1405
168.31599 -13.5731 1346
164.804 -72.398903 1355
232.813 -72.398903 1355
248.27 -72.398903 1355
153.646 -20.4177 1394
271.31699 -20.4177 1394
214.44701 -34.280602 1376
200.907 35.439701 1402
223.297 35.439701 1402
157.217 -64.0979 1343
162.98 -53.254902 1340
219.536 -53.254902 1340
224.12199 -53.254902 1340
225.651 -53.254902 1340
271.34698 -53.193199 1378
177.334 -48.415001 1333
265.20801 -15.5687 1387
201.89999 -98.675102 1355
267.694 -50.8484 1400
180.549 6.6100302 1393
219.53 -28.877199 1419
266.09698 -33.281502 1400
281.237 -20.7985 1420
214.226 -117.501 1395
239.72099 -6.0713601 1386
172.02299 -78.349602 1351
181.27 -78.349602 1351
182.811 -78.349602 1351
185.89301 -78.349602 1351
187.43401 -78.349602 1351
188.976 -78.349602 1351
190.517 -78.349602 1351
192.058 -78.349602 1351
193.599 -78.349602 1351
195.14 -78.349602 1351
196.681 -78.349602 1351
207.46899 -78.349602 1351
227.50301 -78.349602 1351
151.826 -24.1402 1336
197.545 -24.1402 1336
177.201 -30.145599 1332
178.72099 -30.145599 1332
180.24001 -30.145599 1332
181.75999 -30.145599 1332
183.27901 -30.145599 1332
186.31799 -30.145599 1332
187.83701 -30.145599 1332
189.35699 -30.145599 1332
190.87601 -30.145599 1332
198.47301 -30.145599 1332
199.993 -30.145599 1332
250.73801 -75.768799 1360
192.77299 15.8427 1367
223.96001 15.8427 1367
196.89101 3.4123099 1385
233.228 3.4123099 1385
209.783 23.449301 1356
211.33 23.449301 1356
212.877 23.449301 1356
244.946 -4.44174 1371
217.828 5.0750899 1408
205.62601 -70.016602 1339
216.31799 -70.016602 1339
260 -10.869 1393
167.56599 -18.0982 1340
220.52499 0.25801599 1415
222.13901 0.25801599 1415
223.75301 0.25801599 1415
193.742 -61.443001 1352
215.97099 -55.437599 1356
178.263 1.85227 1400
250.127 1.85227 1400
183.48801 -81.7332 1356
185.035 -81.7332 1356
186.58099 -81.7332 1356
188.12801 -81.7332 1356
189.675 -81.7332 1356
200.50301 -81.7332 1356
202.049 -81.7332 1356
212.877 -81.7332 1356
243.813 -81.7332 1356
262.353 -40.321201 1423
296.44 -40.321201 1423
207.466 -7.8069701 1414
261.008 -2.9533999 1407
159.34 -67.411903 1348
163.953 -67.411903 1348
165.491 -67.411903 1348
170.104 -67.411903 1348
187.01801 -67.411903 1348
264.767 -28.348101 1393
149.55701 -28.8626 1343
168.463 -40.873402 1335
216.767 -85.139603 1361
219.87199 -85.139603 1361
221.424 -85.139603 1361
249.369 -85.139603 1361
218.83299 -24.122801 1425
202.217 36.986099 1400
218.187 36.986099 1400
237.21201 -43.720798 1428
255.707 -82.577003 1370
148.687 -50.534901 1349
233.321 -50.534901 1349
151.006 -23.682699 1399
186.672 6.4913998 1368
141.411 -44.511299 1353
142.95399 -44.511299 1353
166.657 -56.522099 1345
172.79401 -56.522099 1345
174.328 -56.522099 1345
172.408 -45.680199 1342
196.90199 -45.680199 1342
198.43201 -45.680199 1342
218.33299 -45.680199 1342
263.436 -23.462601 1386
179.064 -39.674801 1346
180.599 -39.674801 1346
255.89999 -59.912399 1388
257.483 -59.912399 1388
234.576 -45.827202 1393
275.89001 -45.827202 1393
160.58099 -6.1283002 1399
165.368 -6.1283002 1399
168.56 -6.1283002 1399
259.52399 -6.1283002 1399
211.922 33.309399 1380
184.92999 -73.344299 1344
186.463 -73.344299 1344
220.192 -73.344299 1344
239.008 -35.601002 1429
297.69 -35.601002 1429
203.746 -91.0811 1357
230.061 -91.0811 1357
231.60899 -91.0811 1357
181.327 11.4261 1399
214.84 11.4261 1399
216.436 11.4261 1399
194.048 17.3766 1365
212.733 17.3766 1365
195.892 -97.9897 1367
154.642 -22.5823 1334
192.68401 -22.5823 1334
195.175 -94.524002 1362
223.14101 -94.524002 1362
224.694 -94.524002 1362
154.17799 -28.5832 1330
155.69501 -28.5832 1330
175.418 -28.5832 1330
176.935 -28.5832 1330
178.452 -28.5832 1330
181.487 -28.5832 1330
158.158 -51.649101 1338
161.211 -51.649101 1338
191.73599 -51.649101 1338
254.828 -64.766098 1357
256.37601 -64.766098 1357
261.01999 -64.766098 1357
262.56799 -64.766098 1357
155.453 -62.472801 1341
156.983 -62.472801 1341
224.12399 -107.424 1368
225.68401 -107.424 1368
170.442 -7.5253901 1363
245.07201 -7.5253901 1363
227.60699 28.9804 1399
244.71201 -58.747002 1361
250.42599 -4.48386 1384
180.759 14.7013 1407
266.09601 -88.6427 1417
163.01801 -70.748703 1353
198.51601 -70.748703 1353
230.92599 -70.748703 1353
234.013 -70.748703 1353
247.90401 -70.748703 1353
185.631 -16.545 1338
182.408 4.9849801 1383
196.60699 4.9849801 1383
183.94299 -5.9049001 1348
261.72601 -61.0084 1377
267.99799 -39.9529 1410
188.683 3.3507099 1360
268.90601 -49.181099 1398
270.92801 -36.267101 1392
273.00201 -90.394302 1445
173.308 -76.694801 1349
181.002 -76.694801 1349
190.235 -76.694801 1349
191.77299 -76.694801 1349
193.312 -76.694801 1349
225.627 -76.694801 1349
200.798 -100.443 1358
203.146 -96.986099 1353
205.118 38.528 1398
206.713 38.528 1398
213.092 38.528 1398
220.213 1.86947 1413
221.825 1.86947 1413
223.437 1.86947 1413
291.75201 -35.2771 1416
192.33299 1.8192 1375
256.55701 -47.9608 1409
143.06 -53.811298 1354
149.23801 -53.811298 1354
209.474 -53.811298 1354
211.01801 -53.811298 1354
150.414 -33.308998 1337
177.866 -33.308998 1337
180.91701 -33.308998 1337
194.995 -59.812099 1350
236.57401 -59.812099 1350
232.94299 -6.1852498 1412
160.608 -39.291599 1333
162.129 -39.291599 1333
166.69 -39.291599 1333
169.283 -1.3465 1405
162.787 -16.866501 1364
191.672 -98.264397 1393
193.261 -98.264397 1393
267.75201 -53.733601 1392
196.465 22.144699 1371
238.827 0.25345701 1390
196.873 18.906 1363
198.42799 18.906 1363
210.866 18.906 1363
221.75 18.906 1363
258.66501 -52.5578 1403
260.26599 -52.5578 1403
261.866 -52.5578 1403
263.46701 -52.5578 1403
271.146 -31.3451 1385
268.78699 -54.8843 1381
207.02499 -14.2286 1411
237.60699 -14.2286 1411
152.96201 -65.776497 1346
154.49699 -65.776497 1346
163.71001 -65.776497 1346
180.599 -65.776497 1346
182.13499 -65.776497 1346
170.86099 -80.0681 1354
183.217 -80.0681 1354
186.306 -80.0681 1354
187.851 -80.0681 1354
189.395 -80.0681 1354
198.662 -80.0681 1354
200.207 -80.0681 1354
232.642 -80.0681 1354
241.909 -80.0681 1354
151.539 -48.9235 1347
145.069 -38.082699 1344
186.31799 -21.028999 1332
187.83701 -21.028999 1332
189.35699 -21.028999 1332
172.151 -44.083599 1340
173.67999 -44.083599 1340
199.66499 -44.083599 1340
213.422 -44.083599 1340
190.25301 24.3139 1406
156.976 -27.025299 1328
158.491 -27.025299 1328
160.006 -27.025299 1328
169.095 -27.025299 1328
173.63901 -27.025299 1328
175.15401 -27.025299 1328
176.66901 -27.025299 1328
200.466 -17.027201 1377
255.955 -77.4907 1363
140.51199 -30.5604 1422
235.24899 -4.52597 1397
175.601 -54.906101 1343
241.233 -9.3533201 1404
171.63699 -14.9963 1336
258.34698 -22.2605 1410
216.48801 -35.928398 1379
180.599 -4.3607502 1346
263.47601 -100.423 1447
205.625 15.9934 1380
265.52701 -57.1138 1397
191.214 -1.3100801 1367
176.209 -50.047901 1336
188.401 -50.047901 1336
205.597 -83.464203 1359
208.69701 -83.464203 1359
210.24699 -83.464203 1359
211.798 -83.464203 1359
213.34801 -83.464203 1359
214.89799 -83.464203 1359
216.448 -83.464203 1359
219.549 -83.464203 1359
222.649 -83.464203 1359
247.453 -83.464203 1359
243.758 -2.9009199 1382
183.72 6.5530901 1381
241.40401 16.2831 1405
254.683 -17.188 1390
231.065 -44.174702 1391
273.90701 -44.174702 1391
275.49399 -44.174702 1391
256.89401 -80.896004 1368
297.065 -42.032902 1426
155.22099 -60.8522 1339
261.379 -30.281 1409
145.138 -57.110401 1359
146.688 -57.110401 1359
149.017 -25.9715 1352
193.90601 9.5842695 1364
230.534 -33.923401 1427
232.162 -33.923401 1427
159.69501 -69.102997 1351
201.304 -69.102997 1351
229.04401 -69.102997 1351
233.66701 -69.102997 1351
247.537 -69.102997 1351
207.452 20.4307 1361
296.47501 -45.445 1431
225.526 5.0318398 1396
151.71201 -31.7363 1335
179.123 -31.7363 1335
180.646 -31.7363 1335
225.916 -92.833801 1360
233.673 -92.833801 1360
249.092 -10.674 1368
267.61801 -38.2901 1408
146.688 -30.756599 1359
171.616 3.4763701 1411
209.522 -9.4399204 1417
235.384 -9.4399204 1417
274.177 -9.4399204 1417
270.539 -34.629398 1390
173.901 -19.480301 1330
175.418 -19.480301 1330
183.004 -19.480301 1330
232.14999 1.8364 1388
233.73399 1.8364 1388
236.89999 1.8364 1388
175.444 0.25582799 1403
222.23801 -105.709 1366
270.11401 -47.518299 1396
176.12399 -75.044601 1347
177.66 -75.044601 1347
179.19701 -75.044601 1347
180.733 -75.044601 1347
189.953 -75.044601 1347
160.28101 -19.6707 1343
172.90199 -13.4521 1334
182.032 -13.4521 1334
145.933 -52.189602 1352
147.47501 -52.189602 1352
149.017 -52.189602 1352
212.24899 -52.189602 1352
205.27 -4.56809 1410
266.38901 -4.56809 1410
231.623 25.880899 1404
217.772 -58.185799 1348
234.686 -58.185799 1348
203.504 11.328 1387
231.983 11.328 1387
186.994 -4.4028602 1359
147.91499 -36.495201 1342
152.05299 -42.491501 1338
182.578 -42.491501 1338
184.105 -42.491501 1338
185.631 -42.491501 1338
188.683 -42.491501 1338
190.21001 -42.491501 1338
200.89301 -42.491501 1338
221.326 14.3147 1370
216.767 -102.217 1361
265.85599 -96.786201 1442
140.177 -46.156799 1356
141.724 -46.156799 1356
229.561 -47.316601 1345
220.589 30.2703 1385
200.50301 -98.748001 1356
209.783 -98.748001 1356
211.33 -98.748001 1356
261.008 -46.2878 1407
262.61301 -46.2878 1407
260.71399 -102.285 1450
151.202 -64.145599 1344
152.735 -64.145599 1344
155.80099 -64.145599 1344
158.867 -64.145599 1344
160.39999 -64.145599 1344
268.953 -52.070801 1390
174.94701 -7.3873601 1338
181.052 -7.3873601 1338
155.453 -53.294601 1341
164.631 -53.294601 1341
218.17101 -53.294601 1341
227.349 -53.294601 1341
186.647 17.860399 1403
200.57001 25.198799 1367
217.722 25.198799 1367
157.72701 -7.7407198 1402
237.69 -7.7407198 1402
263.27899 -7.7407198 1402
265.34399 -41.6497 1413
202.496 21.950899 1359
204.047 21.950899 1359
186.59801 -48.451302 1334
198.369 -78.4076 1352
229.214 -78.4076 1352
230.756 -78.4076 1352
238.467 -78.4076 1352
144.49699 -35.250999 1353
193.39999 24.1064 1394
216.48801 -114.58 1379
252.733 -15.5799 1388
271.51199 -37.936501 1395
282.651 -37.936501 1395
252.474 -75.824501 1361
253.882 -49.673599 1412
282.87399 -49.673599 1412
141.93401 -28.8976 1420
214.976 -20.8132 1421
258.19601 -45.032101 1418
290.54599 -45.032101 1418
176.918 9.8512802 1402
245.687 9.8512802 1402
153.005 -30.1682 1333
201.66299 -30.1682 1333
179.089 6.6147799 1394
199.218 -24.158199 1337
254.008 -55.440701 1395
266.73801 -55.440701 1395
194.888 -99.064903 1382
203.746 -81.793404 1357
211.48599 -81.793404 1357
245.541 -81.793404 1357
248.63699 -81.793404 1357
175.68201 -11.9125 1332
177.201 -11.9125 1332
250.30499 13.1243 1410
240.187 -61.4884 1353
144.924 -55.478401 1357
267.79199 -56.582298 1384
234.978 3.4147699 1386
258.077 -79.219498 1366
259.63501 -79.219498 1366
158.41701 -10.8768 1394
214.761 15.8543 1368
225.68401 15.8543 1368
272.48001 -94.080002 1451
194.50999 27.4433 1402
254.95 5.0787001 1409
167.15199 -67.461899 1349
168.69099 -67.461899 1349
188.696 -67.461899 1349
202.545 -67.461899 1349
204.084 -67.461899 1349
224.089 -67.461899 1349
206.842 23.4666 1357
208.39 23.4666 1357
214.582 23.4666 1357
188.992 12.8916 1385
217.42999 12.8916 1385
228.489 12.8916 1385
287.70801 -51.865398 1428
200.76401 1.8536 1401
225.33501 -32.250301 1425
161.59399 -18.2873 1354
147.69501 -34.9123 1340
178.26601 -34.9123 1340
181.323 -34.9123 1340
270.14999 -32.9963 1388
145.717 -50.572399 1350
147.257 -50.572399 1350
154.87399 -40.903999 1336
156.39799 -40.903999 1336
205.16499 -40.903999 1336
160.008 -2.9554999 1408
256.267 -13.8454 1373
267.23801 -36.631901 1406
151.427 -56.564098 1346
168.31599 -56.564098 1346
169.851 -56.564098 1346
171.38699 -56.564098 1346
264.76001 -98.635902 1445
204.582 30.007999 1373
151.089 -45.714298 1343
195.51601 -45.714298 1343
220.028 -45.714298 1343
200.798 -91.148201 1358
202.347 -91.148201 1358
205.44501 -91.148201 1358
206.995 -91.148201 1358
208.54401 -91.148201 1358
227.133 -91.148201 1358
228.68201 -91.148201 1358
233.32899 -91.148201 1358
271.31699 -45.8601 1394
215.53101 -94.593399 1363
217.08501 -94.593399 1363
221.75 -94.593399 1363
232.987 -1.335 1393
234.188 -94.593399 1363
235.743 -94.593399 1363
181.99899 -73.398903 1345
188.136 -73.398903 1345
205.013 -73.398903 1345
227.411 -107.503 1369
228.972 -107.503 1369
295.45999 -47.175999 1434
167.724 -9.1867704 1379
252.66701 -9.1867704 1379
151.293 -23.4795 1387
152.875 -23.4795 1387
269.95499 -23.4795 1387
158.39999 -18.6385 1380
180.24001 -46.8592 1332
181.75999 -46.8592 1332
153.474 -10.9783 1407
203.229 -10.9783 1407
238.53799 -10.9783 1407
162.858 -51.687698 1339
159.099 -6.13269 1400
167.084 -6.13269 1400
199.024 -6.13269 1400
219.94099 37.012501 1401
261.935 -31.9561 1412
156.96001 -70.801003 1354
158.505 -70.801003 1354
161.59399 -70.801003 1354
232.642 -70.801003 1354
158.631 -62.519299 1342
208.851 35.161598 1391
152.776 -28.6047 1331
180.105 -28.6047 1331
183.14101 -28.6047 1331
193.769 -28.6047 1331
194.35201 -22.5993 1335
256.82199 -18.8141 1393
220.35699 -103.998 1364
163.832 -13.9765 1386
261.85501 -13.9765 1386
255.62801 -61.0527 1378
179.86 11.4342 1400
243.739 11.4342 1400
193.75999 20.6259 1374
182.008 8.1931496 1392
240.584 -7.53091 1364
208.925 33.3335 1381
210.5 33.3335 1381
206.202 28.234699 1363
197.84599 -100.517 1359
214.89799 -100.517 1359
201.75101 -97.0578 1354
204.84 -97.0578 1354
206.38499 -97.0578 1354
207.929 -97.0578 1354
237.968 -4.4871001 1385
239.548 -4.4871001 1385
171.896 -76.751602 1350
194.995 -76.751602 1350
196.535 -76.751602 1350
204.235 -76.751602 1350
205.77499 -76.751602 1350
227.33501 -76.751602 1350
278.67401 -49.216301 1399
246.73801 14.7118 1408
204.495 14.4506 1383
270.17999 -85.1689 1413
216.15601 -68.438103 1338
213.05499 -19.165199 1419
250.55299 -74.162903 1359
161.36501 -9.2733698 1392
164.541 -9.2733698 1392
166.129 -9.2733698 1392
276.37799 -11.0797 1420
165.98199 -16.7181 1352
262.86301 -35.302101 1417
155.793 -14.1076 1399
147.802 -53.851002 1355
214.26601 -53.851002 1355
174.339 6.6764598 1407
225.65401 -40.883301 1387
216.715 -59.8564 1351
218.256 -59.8564 1351
179.526 -33.3339 1338
200.47701 3.4468 1399
248.353 3.4468 1399
262.944 -62.124699 1367
250.466 -53.772202 1393
261.06201 -43.353401 1416
291.75201 -43.353401 1416
157.685 -39.321098 1334
159.207 -39.321098 1334
249.24001 -52.595299 1404
201.89999 -80.127197 1355
209.629 -80.127197 1355
243.633 -80.127197 1355
165.187 -12.2613 1371
167.142 1.8708 1414
270.82999 -81.655197 1408
165.368 -65.825302 1347
171.51401 -65.825302 1347
173.05099 -65.825302 1347
174.58701 -65.825302 1347
176.12399 -65.825302 1347
177.66 -65.825302 1347
179.19701 -65.825302 1347
185.343 -65.825302 1347
220.683 -65.825302 1347
248.48801 -54.924099 1382
203.66901 38.5555 1399
214.84 38.5555 1399
216.436 38.5555 1399
154.129 -6.18963 1413
207.319 -6.18963 1413
270.17999 -6.18963 1413
256.811 -106.03 1456
164.592 -1.34746 1406
166.196 -1.34746 1406
167.8 -1.34746 1406
203.084 -1.34746 1406
257.69901 -77.5476 1364
259.255 -77.5476 1364
231.065 0.25364 1391
232.65199 0.25364 1391
242.172 0.25364 1391
231.61099 -48.959801 1348
181.99899 -38.111099 1345
261.401 -26.739901 1392
262.98901 -26.739901 1392
275.69199 -26.739901 1392
150.864 -44.116501 1341
193.69501 -44.116501 1341
196.755 -44.116501 1341
198.285 -44.116501 1341
215.11099 -44.116501 1341
169.05099 -7.6026902 1377
192.612 -7.6026902 1377
195.46201 18.9198 1364
200.129 18.9198 1364
223.468 18.9198 1364
236.164 -14.2387 1412
165.17 -21.0448 1333
166.69 -21.0448 1333
168.211 -21.0448 1333
191.019 -21.0448 1333
142.84801 -42.9361 1352
221.502 -42.9361 1352
166.533 -54.946999 1344
172.66499 -54.946999 1344
174.198 -54.946999 1344
230.923 -54.946999 1344
229.72701 -38.670799 1422
154.062 -27.0457 1329
155.578 -27.0457 1329
161.642 -27.0457 1329
163.158 -27.0457 1329
164.674 -27.0457 1329
166.19 -27.0457 1329
167.70599 -27.0457 1329
178.31799 -27.0457 1329
179.834 -27.0457 1329
181.35001 -27.0457 1329
256.14899 -92.238297 1398
207.299 -83.525597 1360
202.868 -21.6605 1372
210.196 -26.4902 1379
270.50101 -39.612801 1398
284.854 -39.612801 1398
264.82599 -21.865801 1385
266.40601 -21.865801 1385
159.565 -50.0854 1337
190.067 -50.0854 1337
199.32899 25.438499 1380
170.241 -15.0075 1337
183.967 -15.0075 1337
183.261 -71.757797 1343
184.793 -71.757797 1343
204.70799 -71.757797 1343
184.91701 9.7669601 1390
237.242 9.7669601 1390
265.25601 -34.978199 1404
217.05499 -22.481501 1424
241.784 -5.9662299 1362
213.092 13.0126 1398
214.686 13.0126 1398
238.60699 13.0126 1398
154.85899 -9.3599796 1405
238.19901 -9.3599796 1405
182.27 -4.3639898 1347
196.465 -99.840302 1371
272.51599 -44.206402 1392
277.28 -44.206402 1392
153.80901 -60.897598 1340
156.866 -60.897598 1340
165.174 -12.3776 1384
196.74899 -12.3776 1384
248.453 -63.1716 1356
156.489 -17.2003 1391
191.597 16.004999 1381
212.076 16.004999 1381
229.40401 16.004999 1381
259.83499 -42.062401 1427
240.78 -2.9030199 1383
232.72301 6.5578299 1382
231.439 -89.467201 1356
232.985 -89.467201 1356
199.884 12.7799 1373
183.838 16.294701 1406
239.972 16.294701 1406
155.186 -69.154198 1352
156.728 -69.154198 1352
196.827 -69.154198 1352
198.369 -69.154198 1352
230.756 -69.154198 1352
232.298 -69.154198 1352
195.032 -92.9021 1361
212.10899 -92.9021 1361
235.397 -92.9021 1361
190.37601 -15.1534 1350
172.28 -8.9336205 1341
233.95399 -33.947201 1428
235.58299 -33.947201 1428
237.21201 -33.947201 1428
261.646 -33.947201 1428
295.853 -33.947201 1428
255.84399 -45.4767 1432
222.64999 28.7526 1388
154.74899 -17.361099 1404
223.96001 -105.786 1367
255.32001 -98.549202 1420
208.158 40.094002 1397
209.752 40.094002 1397
196.01601 -7.6744699 1390
256.26901 -7.6744699 1390
285.87201 -42.955299 1403
174.717 -75.100304 1348
191.631 -75.100304 1348
205.47 -75.100304 1348
206.689 -66.811798 1336
209.737 -66.811798 1336
244.811 5.03544 1397
162.007 -37.742699 1332
163.526 -37.742699 1332
165.04601 -37.742699 1332
198.282 20.4457 1362
201.39 20.4457 1362
206.05099 20.4457 1362
269.147 -34.654301 1391
280.254 -34.654301 1391
201.39 -102.292 1362
152.94901 -17.521799 1417
149.82201 -9.4465799 1418
170.995 -19.495001 1331
172.513 -19.495001 1331
184.66 -19.495001 1331
213.034 -98.820801 1357
170.481 -25.491301 1327
171.995 -25.491301 1327
173.509 -25.491301 1327
250.18401 -72.505798 1357
195.662 -19.6854 1344
146.493 -36.5224 1343
178.66499 -36.5224 1343
181.729 -36.5224 1343
210.836 -36.5224 1343
173.967 0.25601 1404
202.795 0.25601 1404
254.045 0.25601 1404
172.02299 -42.5233 1339
181.187 -42.5233 1339
191.879 -42.5233 1339
199.51601 -42.5233 1339
211.73599 -42.5233 1339
231.16901 -4.5713301 1411
262.492 -33.6381 1415
162.054 -64.193398 1345
181.99899 -64.193398 1345
259.58701 -46.320702 1408
176.272 -4.4060998 1360
191.72099 25.8993 1405
224.23399 11.3362 1388
262.61099 -25.1159 1390
273.70999 -25.1159 1390
166.285 -53.3344 1342
175.47 -53.3344 1342
229.049 -53.3344 1342
200.05901 -78.465599 1353
201.60201 -78.465599 1353
203.146 -78.465599 1353
204.689 -78.465599 1353
206.23199 -78.465599 1353
232.47 -78.465599 1353
234.013 -78.465599 1353
235.55701 -78.465599 1353
237.10001 -78.465599 1353
240.187 -78.465599 1353
187.308 14.5864 1396
205.27 -12.6101 1410
266.47699 -50.921101 1402
263.91901 -41.679199 1414
174.56799 -2.93031 1396
233.48801 -2.93031 1396
154.01199 -20.256599 1383
254.214 -75.880203 1362
258.875 -75.880203 1362
254.79401 -10.7832 1382
208.54401 -108.188 1358
210.093 -108.188 1358
211.642 -108.188 1358
213.19099 -108.188 1358
156.239 -7.7462401 1403
187.01801 -13.5933 1348
236.42799 17.8731 1404
218.17101 -70.121201 1341
201.09399 21.9671 1360
218.159 21.9671 1360
190.65401 11.132 1363
192.209 11.132 1363
193.76401 11.132 1363
205.44501 -81.853699 1358
208.54401 -81.853699 1358
210.093 -81.853699 1358
247.271 -81.853699 1358
263.41901 -36.996601 1420
294.19601 -36.996601 1420
287.91901 -28.9179 1421
143.33299 -33.329102 1402
144.933 -33.329102 1402
264.87799 -33.329102 1402
203.336 -30.190901 1334
150.244 -20.827801 1422
241.909 -61.533901 1354
229.314 -42.557301 1390
273.70999 -42.557301 1390
275.29599 -42.557301 1390
265.11801 -93.237099 1438
148.129 -55.519299 1358
284.07599 -53.119701 1418
176.802 -17.949699 1329
178.31799 -17.949699 1329
247.46201 9.8583097 1403
251.291 -85.264702 1363
252.845 -85.264702 1363
225.36501 6.6195202 1395
242.869 6.6195202 1395
158.037 -67.511902 1350
190.37601 -67.511902 1350
191.916 -67.511902 1350
225.795 -67.511902 1350
235.034 -67.511902 1350
236.57401 -67.511902 1350
238.114 -67.511902 1350
239.65401 -67.511902 1350
241.194 -67.511902 1350
174.293 -11.9215 1333
178.855 -11.9215 1333
180.375 -11.9215 1333
166.285 -18.125299 1342
192.30901 -18.125299 1342
235.088 -40.377899 1425
261.09601 -40.377899 1425
252.048 -51.901699 1429
261.96399 -10.8846 1395
220.433 33.647301 1394
207.901 -65.190102 1334
236.78101 -98.133003 1369
238.342 -98.133003 1369
186.856 -2.8505399 1358
240.605 -4.4482198 1373
242.17101 -4.4482198 1373
243.737 -4.4482198 1373
259.77499 -104.226 1454
194.745 -91.215302 1359
196.295 -91.215302 1359
197.84599 -91.215302 1359
199.396 -91.215302 1359
210.24699 -91.215302 1359
235.05099 -91.215302 1359
140.907 -32.272999 1426
227.119 -32.272999 1426
261.27899 -32.272999 1426
293.81201 -32.272999 1426
193.90601 -94.662804 1364
218.80099 -94.662804 1364
220.35699 -94.662804 1364
160.16701 -18.3008 1355
172.151 -7.4646602 1352
173.10201 5.0823002 1410
179.92799 -34.938301 1341
208.992 -34.938301 1341
278.26599 -33.02 1389
179.064 -73.4534 1346
180.599 -73.4534 1346
153.464 -40.934601 1337
170.241 -40.934601 1337
202.26801 -40.934601 1337
203.79401 -40.934601 1337
206.84399 -40.934601 1337
208.369 -40.934601 1337
209.894 -40.934601 1337
269.483 -41.296001 1401
194.562 -56.606098 1347
217.61 -56.606098 1347
232.97501 -56.606098 1347
152.841 -7.8180199 1416
209.37399 -7.8180199 1416
273.98401 -7.8180199 1416
176.918 1.85492 1402
252.084 1.85492 1402
257.11801 -43.782001 1430
297.89899 -43.782001 1430
204.64301 31.8272 1384
259.44 -59.998798 1390
261.02499 -59.998798 1390
262.61099 -59.998798 1390
205.44501 23.4839 1358
277.87701 -45.893002 1395
195.327 -13.8555 1374
143.963 -39.7337 1348
214.696 -39.7337 1348
205.125 -2.9575901 1409
229.23399 -2.9575901 1409
222.075 -104.075 1365
281.66199 -23.9366 1414
178.855 -46.894402 1333
183.41701 -46.894402 1333
184.937 -46.894402 1333
249.81599 -70.853302 1355
149.55701 -62.565899 1343
151.089 -62.565899 1343
154.153 -62.565899 1343
160.28101 -62.565899 1343
161.813 -62.565899 1343
156.866 -51.726299 1340
164.509 -51.726299 1340
193.55099 -51.726299 1340
221.065 -51.726299 1340
222.593 -51.726299 1340
224.12199 -51.726299 1340
225.651 -51.726299 1340
262.233 -23.4965 1388
231.564 -1.33596 1394
226.631 25.678101 1393
258.95999 -61.097 1379
260.53299 -61.097 1379
200.355 -97.129501 1355
151.76401 -22.8363 1349
184.798 -28.6262 1332
186.31799 -28.6262 1332
187.83701 -28.6262 1332
189.35699 -28.6262 1332
190.87601 -28.6262 1332
192.396 -28.6262 1332
195.43401 -28.6262 1332
196.95399 -28.6262 1332
198.47301 -28.6262 1332
199.993 -28.6262 1332
235.923 -6.1370702 1401
261.49301 -6.1370702 1401
153.35001 -22.616199 1336
267.23801 -44.651001 1406
270.34399 -50.448898 1389
271.92899 -50.448898 1389
201.304 -76.808502 1351
202.845 -76.808502 1351
162.368 -13.9866 1387
228.11099 -40.009499 1412
266.767 -40.009499 1412
207.41299 35.186901 1392
212.177 35.186901 1392
215.353 35.186901 1392
180.549 8.1990404 1393
240.93201 8.1990404 1393
189.377 -7.5364399 1365
205.62601 -68.489197 1339
208.04401 -19.003201 1407
241.252 -12.154 1359
242.802 -12.154 1359
244.35201 -12.154 1359
245.903 -12.154 1359
169.09399 -16.5697 1340
187.437 -16.5697 1340
252.289 -74.217499 1360
213.662 -109.98 1361
215.214 -109.98 1361
250.842 -95.837303 1404
209.783 24.996099 1356
269.72699 -36.319199 1394
192.77299 17.4021 1367
200.57001 17.4021 1367
183.48801 -1.29954 1356
213.806 33.357601 1382
238.467 -59.9007 1352
174.976 -5.91366 1350
214.133 28.2554 1364
146.364 -53.8908 1356
239.173 -53.8908 1356
191.77299 -2.87783 1371
253.77299 -62.170101 1368
217.911 -27.2586 1419
285.89499 -27.2586 1419
203.59599 -80.186401 1356
205.14301 -80.186401 1356
208.23599 -80.186401 1356
245.36 -80.186401 1356
151.653 -19.178699 1420
195.96899 29.021799 1401
185.853 3.3556399 1362
190.51401 3.3556399 1362
159.892 -9.2800398 1393
163.07001 -9.2800398 1393
156.265 -65.874199 1348
167.028 -65.874199 1348
168.56599 -65.874199 1348
170.104 -65.874199 1348
187.01801 -65.874199 1348
222.38499 -65.874199 1348
147.584 -33.358799 1339
149.112 -33.358799 1339
189.33299 11.2382 1376
156.28101 -39.350601 1335
168.463 -39.350601 1335
189.94701 17.720301 1392
253.16299 6.68121 1408
226.172 3.44926 1400
209.129 31.551201 1372
210.694 31.551201 1372
251.38499 -12.2702 1372
252.95 -12.2702 1372
150.22501 -48.996101 1349
233.321 -48.996101 1349
249.369 -83.587097 1361
269.95499 -31.390301 1387
276.284 -31.390301 1387
169.72501 -54.987801 1345
171.259 -54.987801 1345
217.287 -54.987801 1345
195.371 -44.149399 1342
199.33099 27.228001 1391
179.064 -38.1394 1346
289.74399 -46.7812 1422
141.411 -42.967899 1353
186.463 -71.811203 1344
220.192 -71.811203 1344
257.92801 -57.195499 1399
188.23199 8.0518904 1368
194.474 8.0518904 1368
163.104 -1.34842 1407
257.798 -1.34842 1407
162.25 -21.0606 1334
163.772 -21.0606 1334
231.511 -38.698002 1423
296.44 -38.698002 1423
152.661 -27.066 1330
158.158 -50.122898 1338
161.211 -50.122898 1338
152.517 -14.2487 1413
250.912 -7.6082101 1378
153.002 -21.4711 1360
154.55299 -21.4711 1360
139.08501 -30.6033 1424
223.552 -30.6033 1424
202.198 -89.533203 1357
203.746 -89.533203 1357
226.965 -89.533203 1357
228.513 -89.533203 1357
230.061 -89.533203 1357
234.705 -89.533203 1357
236.25301 -89.533203 1357
263.436 -21.881599 1386
152.394 -60.9431 1341
158.513 -60.9431 1341
193.621 -92.970299 1362
213.819 -92.970299 1362
223.14101 -92.970299 1362
266.983 -58.329102 1388
201.83299 18.933701 1365
208.062 18.933701 1365
209.619 18.933701 1365
257.92401 -63.218201 1357
259.47198 -63.218201 1357
259.47 -22.497299 1425
243.517 -5.9706101 1363
170.15601 -4.5324502 1399
233.99001 -4.5324502 1399
243.159 -57.1945 1361
200.05901 -69.205299 1353
249.44701 -69.205299 1353
225.68401 -105.864 1368
258.50699 -12.3865 1385
177.79201 -4.3672299 1348
238.99899 9.7739897 1391
269.34 -17.2127 1392
184.519 13.0219 1399
239.375 -2.9051199 1384
245.69 -2.9051199 1384
248.847 -2.9051199 1384
250.42599 -2.9051199 1384
198.881 30.5763 1399
187.132 4.9020801 1360
210.653 16.0166 1382
252.30099 -59.437599 1377
239.008 -33.970901 1429
240.638 -33.970901 1429
218.64 -102.367 1363
220.19501 -102.367 1363
167.39999 -15.1646 1351
173.308 -75.155998 1349
193.312 -75.155998 1349
194.851 -75.155998 1349
204.084 -75.155998 1349
224.089 -75.155998 1349
182.364 16.306299 1407
243.353 16.306299 1407
205.319 -31.783899 1337
199.24899 -98.8936 1358
268.45901 -42.986 1404
160.608 -37.771 1333
166.69 -37.771 1333
236.57401 -58.272202 1350
278.47501 -47.586399 1398
141.515 -52.2668 1354
143.06 -52.2668 1354
144.604 -52.2668 1354
211.01801 -52.2668 1354
237.27499 -52.2668 1354
214.133 -111.778 1364
218.80099 -111.778 1364
264.12201 -30.0446 1398
280.069 -30.0446 1398
189.515 9.5983295 1366
155.68201 -12.5028 1398
267.31201 -12.5028 1398
251.918 -72.559196 1358
258.11401 -72.559196 1358
259.66299 -72.559196 1358
201.929 5.0390501 1398
246.58099 5.0390501 1398
222.33 -39.2728 1386
153.946 -25.5105 1328
158.491 -25.5105 1328
160.006 -25.5105 1328
169.095 -25.5105 1328
175.15401 -25.5105 1328
176.66901 -25.5105 1328
178.18401 -25.5105 1328
169.604 -19.5096 1332
186.31799 -19.5096 1332
187.83701 -19.5096 1332
154.49699 -64.241096 1346
163.71001 -64.241096 1346
177.528 -64.241096 1346
179.064 -64.241096 1346
180.599 -64.241096 1346
215.98801 -25.6038 1417
283.87601 -25.6038 1417
206.713 40.1227 1398
211.49699 40.1227 1398
204.647 20.460699 1363
220.19501 20.460699 1363
150.752 -42.555 1340
173.67999 -42.555 1340
175.20799 -42.555 1340
176.737 -42.555 1340
179.79401 -42.555 1340
193.55099 -42.555 1340
196.608 -42.555 1340
198.13699 -42.555 1340
170.86099 -78.523598 1354
241.909 -78.523598 1354
151.539 -47.386902 1347
145.069 -36.549599 1344
170.24699 3.4812901 1413
238.827 1.83904 1390
171.63699 -13.4723 1336
283.88 -46.3536 1409
204.047 -108.268 1359
205.597 -108.268 1359
214.89799 -108.268 1359
141.202 -41.3633 1351
142.743 -41.3633 1351
154.153 -53.3741 1343
239.561 -6.0275502 1376
172.489 0.25619301 1405
207.172 -4.5745702 1412
146.33501 -29.7652 1385
159.446 -48.523899 1336
176.209 -48.523899 1336
188.401 -48.523899 1336
261.21301 -25.134001 1391
255.282 -94.101501 1402
255.955 -75.935997 1363
257.51001 -75.935997 1363
260.61899 -75.935997 1363
200.757 26.993099 1379
207.147 -81.914001 1359
222.811 11.3444 1389
233.90199 11.3444 1389
237.60699 -12.619 1411
155.22099 -59.324799 1339
257.55899 -20.4617 1397
273.495 -20.4617 1397
165.05499 -10.791 1383
195.02901 -10.791 1383
232.55499 8.1284103 1381
201.194 -7.75176 1404
243.633 -61.5793 1355
157.96201 -15.6024 1390
251.51199 -15.6024 1390
267.36801 -15.6024 1390
146.688 -55.5602 1359
145.37801 -28.938299 1422
247.049 -92.222099 1374
151.71201 -30.213499 1335
185.31 17.885799 1405
193.599 -67.561897 1351
195.14 -67.561897 1351
227.50301 -67.561897 1351
229.04401 -67.561897 1351
233.66701 -67.561897 1351
242.914 -67.561897 1351
244.455 -67.561897 1351
245.996 -67.561897 1351
277.07999 -42.587898 1391
250.78799 -56.664101 1386
199.689 21.9832 1361
163.40401 -36.196098 1331
164.922 -36.196098 1331
179.96899 -17.9632 1330
181.487 -17.9632 1330
184.222 4.9489398 1373
193.33701 -91.282402 1360
225.916 -91.282402 1360
228.711 24.141001 1396
206.534 -65.238899 1335
170.524 -6.0844998 1389
254.5 -6.0844998 1389
247.53101 -9.1134901 1368
192.06799 -13.7345 1362
203.23199 6.62427 1396
154.638 -15.7483 1403
176.12399 -73.508003 1347
177.66 -73.508003 1347
189.953 -73.508003 1347
203.78101 -73.508003 1347
222.22 -73.508003 1347
202.037 28.5247 1377
219.315 28.5247 1377
157.052 -10.8925 1396
198.86501 -104.151 1366
200.423 -104.151 1366
201.981 -104.151 1366
223.79601 -104.151 1366
225.354 -104.151 1366
228.47099 -104.151 1366
230.02901 -104.151 1366
144.39101 -50.647301 1352
235.383 -50.647301 1352
146.384 -34.964401 1342
268.953 -33.0438 1390
139.37801 -32.295601 1427
228.90601 -32.295601 1427
152.05299 -40.965302 1338
200.89301 -40.965302 1338
174.952 -4.4514599 1374
181.485 3.4196999 1388
230.567 3.4196999 1388
232.14999 3.4196999 1388
236.89999 3.4196999 1388
287.26801 -41.3255 1402
