# .PCD v0.7 - Point Cloud Data file format
VERSION 0.7
FIELDS x y z
SIZE 4 4 4
TYPE F F F
COUNT 1 1 1
WIDTH 1065
HEIGHT 1
VIEWPOINT 0 0 0 1 0 0 0
POINTS 1065
DATA ascii
125.282 183.42599 507
125.86 183.42599 507
94.464401 188.308 500
95.034698 188.308 500
95.605103 188.308 500
96.1754 188.308 500
96.745796 188.308 500
103.679 184.21899 506
104.256 184.21899 506
105.41 184.21899 506
127.344 184.21899 506
127.921 184.21899 506
128.498 184.21899 506
164.742 189.536 511
165.325 189.536 511
165.908 189.536 511
166.491 189.536 511
167.07401 189.536 511
93.137001 189.07001 499
93.7062 189.07001 499
97.121498 189.07001 499
97.690697 189.07001 499
98.259903 189.07001 499
103.176 189.827 498
103.744 189.827 498
118.451 185.007 505
119.027 185.007 505
119.603 185.007 505
99 190.58 497
99.566902 190.58 497
100.134 190.58 497
101.268 190.58 497
101.835 190.58 497
102.402 190.58 497
73.948097 185.78999 504
74.523102 185.78999 504
75.098 185.78999 504
75.672897 185.78999 504
81.997002 185.78999 504
82.571899 185.78999 504
83.146797 185.78999 504
73.801399 186.569 503
74.375198 186.569 503
74.948997 186.569 503
81.260498 186.569 503
81.834297 186.569 503
33.747299 223.312 488
34.304001 223.312 488
34.8606 223.312 488
52.673901 223.312 488
53.230598 223.312 488
74.800003 187.343 502
75.372597 187.343 502
75.945198 187.343 502
76.517899 187.343 502
77.0905 187.343 502
77.663101 187.343 502
78.235802 187.343 502
78.808403 187.343 502
79.381104 187.343 502
79.953697 187.343 502
80.526299 187.343 502
81.098999 187.343 502
81.6716 187.343 502
88.543198 187.343 502
88.938301 188.11301 501
89.509804 188.11301 501
125.282 184.004 507
125.86 184.004 507
95.034698 188.87801 500
95.605103 188.87801 500
96.1754 188.87801 500
96.745796 188.87801 500
104.833 184.79601 506
105.41 184.79601 506
127.344 184.79601 506
127.921 184.79601 506
128.498 184.79601 506
93.137001 189.63901 499
93.7062 189.63901 499
97.121498 189.63901 499
97.690697 189.63901 499
98.259903 189.63901 499
164.742 190.119 511
165.325 190.119 511
165.908 190.119 511
166.491 190.119 511
167.07401 190.119 511
68.258904 203.254 492
68.820099 203.254 492
103.176 190.395 498
103.744 190.395 498
99 191.147 497
99.566902 191.147 497
100.134 191.147 497
100.701 191.147 497
101.268 191.147 497
101.835 191.147 497
102.402 191.147 497
102.968 191.147 497
73.948097 186.36501 504
74.523102 186.36501 504
82.571899 186.36501 504
83.146797 186.36501 504
109.734 173.45799 510
110.316 173.45799 510
110.898 173.45799 510
73.801399 187.14301 503
74.375198 187.14301 503
74.948997 187.14301 503
81.834297 187.14301 503
82.408096 187.14301 503
82.981796 187.14301 503
49.788399 224.521 487
50.343899 224.521 487
50.899399 224.521 487
51.455002 224.521 487
52.010502 224.521 487
52.566002 224.521 487
53.121498 224.521 487
52.117298 223.869 488
52.673901 223.869 488
53.230598 223.869 488
75.372597 187.916 502
75.945198 187.916 502
76.517899 187.916 502
77.0905 187.916 502
77.663101 187.916 502
78.235802 187.916 502
78.808403 187.916 502
79.381104 187.916 502
79.953697 187.916 502
80.526299 187.916 502
81.098999 187.916 502
81.6716 187.916 502
82.244202 187.916 502
82.816902 187.916 502
88.543198 187.916 502
63.069302 165.57001 509
63.650002 165.57001 509
64.230598 165.57001 509
64.811203 165.57001 509
65.3918 165.57001 509
65.972397 165.57001 509
66.553101 165.57001 509
67.133698 165.57001 509
67.714302 165.57001 509
68.294899 165.57001 509
68.875504 165.57001 509
69.4562 165.57001 509
125.282 184.58299 507
125.86 184.58299 507
126.439 184.58299 507
127.017 184.58299 507
94.464401 189.44901 500
95.034698 189.44901 500
95.605103 189.44901 500
96.1754 189.44901 500
96.745796 189.44901 500
66.710503 203.105 493
67.272903 203.105 493
67.835197 203.105 493
68.397598 203.105 493
67.697601 203.81599 492
68.258904 203.81599 492
68.820099 203.81599 492
164.742 190.702 511
165.325 190.702 511
165.908 190.702 511
166.491 190.702 511
167.07401 190.702 511
119.859 173.215 511
120.442 173.215 511
121.024 173.215 511
121.607 173.215 511
122.19 173.215 511
122.773 173.215 511
123.356 173.215 511
123.939 173.215 511
103.176 190.963 498
103.744 190.963 498
83.887802 186.159 505
84.463898 186.159 505
99 191.714 497
99.566902 191.714 497
100.134 191.714 497
100.701 191.714 497
101.268 191.714 497
101.835 191.714 497
102.402 191.714 497
102.968 191.714 497
82.571899 186.94 504
83.146797 186.94 504
83.721703 186.94 504
109.734 174.03999 510
110.316 174.03999 510
110.898 174.03999 510
69.592598 165.313 510
70.1744 165.313 510
70.756104 165.313 510
74.375198 187.717 503
82.408096 187.717 503
82.981796 187.717 503
83.555603 187.717 503
49.788399 225.076 487
50.343899 225.076 487
50.899399 225.076 487
51.455002 225.076 487
52.010502 225.076 487
52.566002 225.076 487
53.121498 225.076 487
52.673901 224.425 488
53.230598 224.425 488
79.381104 188.489 502
79.953697 188.489 502
80.526299 188.489 502
81.098999 188.489 502
81.6716 188.489 502
82.244202 188.489 502
82.816902 188.489 502
83.389503 188.489 502
88.543198 188.489 502
50.550701 223.77 489
51.108501 223.77 489
51.666302 223.77 489
52.224098 223.77 489
63.650002 166.14999 509
64.230598 166.14999 509
64.811203 166.14999 509
65.3918 166.14999 509
65.972397 166.14999 509
66.553101 166.14999 509
67.133698 166.14999 509
67.714302 166.14999 509
68.294899 166.14999 509
68.875504 166.14999 509
69.4562 166.14999 509
70.036797 166.14999 509
70.617401 166.14999 509
126.439 185.161 507
127.017 185.161 507
94.464401 190.019 500
95.034698 190.019 500
95.605103 190.019 500
96.1754 190.019 500
66.710503 203.668 493
67.272903 203.668 493
67.835197 203.668 493
67.697601 204.377 492
68.258904 204.377 492
68.820099 204.377 492
69.381302 204.377 492
119.859 173.798 511
120.442 173.798 511
121.024 173.798 511
121.607 173.798 511
122.19 173.798 511
122.773 173.798 511
123.356 173.798 511
123.939 173.798 511
124.522 173.798 511
125.688 173.798 511
126.271 173.798 511
126.853 173.798 511
127.436 173.798 511
128.019 173.798 511
83.887802 186.735 505
84.463898 186.735 505
85.040001 186.735 505
85.615997 186.735 505
86.192101 186.735 505
86.768097 186.735 505
87.3442 186.735 505
87.920197 186.735 505
88.4963 186.735 505
89.072403 186.735 505
101.835 192.28101 497
102.402 192.28101 497
102.968 192.28101 497
83.721703 187.515 504
84.2966 187.515 504
86.0214 187.515 504
87.171204 187.515 504
87.746101 187.515 504
88.321098 187.515 504
61.448002 165.895 510
62.029701 165.895 510
62.6115 165.895 510
70.1744 165.895 510
70.756104 165.895 510
49.788399 225.632 487
50.343899 225.632 487
50.899399 225.632 487
51.455002 225.632 487
52.010502 225.632 487
52.566002 225.632 487
53.121498 225.632 487
83.555603 188.28999 503
84.129402 188.28999 503
87.571999 188.28999 503
88.145798 188.28999 503
50.550701 224.327 489
51.108501 224.327 489
51.666302 224.327 489
82.244202 189.061 502
82.816902 189.061 502
83.389503 189.061 502
64.230598 166.731 509
64.811203 166.731 509
65.3918 166.731 509
65.972397 166.731 509
66.553101 166.731 509
67.133698 166.731 509
67.714302 166.731 509
68.294899 166.731 509
68.875504 166.731 509
69.4562 166.731 509
70.036797 166.731 509
70.617401 166.731 509
93.893997 190.589 500
94.464401 190.589 500
95.034698 190.589 500
118.341 173.554 512
118.925 173.554 512
119.509 173.554 512
124.766 173.554 512
125.934 173.554 512
126.518 173.554 512
127.102 173.554 512
56.432598 164.793 512
57.016602 164.793 512
57.600601 164.793 512
66.148102 204.23 493
66.710503 204.23 493
67.272903 204.23 493
67.697601 204.938 492
68.258904 204.938 492
68.820099 204.938 492
69.381302 204.938 492
119.859 174.381 511
120.442 174.381 511
121.024 174.381 511
121.607 174.381 511
122.19 174.381 511
122.773 174.381 511
123.356 174.381 511
123.939 174.381 511
124.522 174.381 511
125.105 174.381 511
125.688 174.381 511
126.271 174.381 511
126.853 174.381 511
127.436 174.381 511
128.019 174.381 511
60.9855 165.63699 511
61.568501 165.63699 511
84.463898 187.311 505
85.040001 187.311 505
85.615997 187.311 505
86.192101 187.311 505
86.768097 187.311 505
87.3442 187.311 505
87.920197 187.311 505
88.4963 187.311 505
89.072403 187.311 505
84.2966 188.09 504
84.871597 188.09 504
86.0214 188.09 504
86.596298 188.09 504
87.171204 188.09 504
87.746101 188.09 504
88.321098 188.09 504
120.206 175.203 510
120.788 175.203 510
121.369 175.203 510
62.029701 166.47701 510
62.6115 166.47701 510
63.193199 166.47701 510
84.129402 188.864 503
88.145798 188.864 503
50.550701 224.88499 489
51.108501 224.88499 489
51.666302 224.88499 489
52.224098 224.88499 489
126.109 185.526 508
64.230598 167.312 509
64.811203 167.312 509
65.3918 167.312 509
65.972397 167.312 509
66.553101 167.312 509
67.133698 167.312 509
67.714302 167.312 509
68.294899 167.312 509
68.875504 167.312 509
118.341 174.138 512
118.925 174.138 512
119.509 174.138 512
125.35 174.138 512
66.148102 204.79201 493
66.710503 204.79201 493
67.272903 204.79201 493
56.432598 165.377 512
57.016602 165.377 512
57.600601 165.377 512
58.1847 165.377 512
58.7687 165.377 512
59.352798 165.377 512
59.936798 165.377 512
60.520901 165.377 512
61.1049 165.377 512
67.697601 205.49899 492
68.258904 205.49899 492
68.820099 205.49899 492
119.276 174.964 511
119.859 174.964 511
120.442 174.964 511
121.024 174.964 511
121.607 174.964 511
122.19 174.964 511
122.773 174.964 511
123.356 174.964 511
123.939 174.964 511
124.522 174.964 511
125.688 174.964 511
126.271 174.964 511
126.853 174.964 511
127.436 174.964 511
128.019 174.964 511
85.040001 187.88699 505
85.615997 187.88699 505
86.768097 187.88699 505
89.072403 187.88699 505
59.819698 166.22 511
60.402599 166.22 511
60.9855 166.22 511
84.871597 188.66499 504
85.446503 188.66499 504
86.0214 188.66499 504
86.596298 188.66499 504
87.171204 188.66499 504
119.624 175.785 510
120.206 175.785 510
120.788 175.785 510
121.369 175.785 510
121.951 175.785 510
122.533 175.785 510
125.253 173.05901 514
125.839 173.05901 514
126.426 173.05901 514
127.012 173.05901 514
127.598 173.05901 514
61.448002 167.058 510
62.029701 167.058 510
62.6115 167.058 510
63.193199 167.058 510
63.775002 167.058 510
84.129402 189.438 503
84.703201 189.438 503
126.109 186.106 508
126.688 186.106 508
127.268 186.106 508
127.847 186.106 508
117.402 173.89301 513
117.987 173.89301 513
125.594 173.89301 513
62.488701 167.892 509
63.069302 167.892 509
63.650002 167.892 509
64.230598 167.892 509
64.811203 167.892 509
66.553101 167.892 509
67.133698 167.892 509
67.714302 167.892 509
68.294899 167.892 509
68.875504 167.892 509
66.148102 205.355 493
66.710503 205.355 493
67.272903 205.355 493
68.258904 206.061 492
116.589 174.722 512
117.173 174.722 512
118.341 174.722 512
118.925 174.722 512
119.509 174.722 512
56.432598 165.961 512
57.016602 165.961 512
57.600601 165.961 512
58.1847 165.961 512
58.7687 165.961 512
59.352798 165.961 512
59.936798 165.961 512
60.520901 165.961 512
116.944 175.547 511
118.11 175.547 511
118.693 175.547 511
119.276 175.547 511
119.859 175.547 511
122.19 175.547 511
122.773 175.547 511
123.356 175.547 511
123.939 175.547 511
124.522 175.547 511
125.105 175.547 511
125.688 175.547 511
126.271 175.547 511
126.853 175.547 511
127.436 175.547 511
128.019 175.547 511
85.615997 188.463 505
56.905201 166.80299 511
57.488098 166.80299 511
58.070999 166.80299 511
58.6539 166.80299 511
59.236801 166.80299 511
59.819698 166.80299 511
60.402599 166.80299 511
60.9855 166.80299 511
61.568501 166.80299 511
84.871597 189.24001 504
86.0214 189.24001 504
86.596298 189.24001 504
87.171204 189.24001 504
87.746101 189.24001 504
119.624 176.367 510
120.206 176.367 510
120.788 176.367 510
121.369 176.367 510
121.951 176.367 510
125.253 173.646 514
125.839 173.646 514
126.426 173.646 514
127.012 173.646 514
127.598 173.646 514
61.448002 167.64 510
62.029701 167.64 510
62.6115 167.64 510
63.193199 167.64 510
63.775002 167.64 510
126.109 186.685 508
126.688 186.685 508
127.268 186.685 508
127.847 186.685 508
117.402 174.478 513
117.987 174.478 513
61.9081 168.47301 509
62.488701 168.47301 509
64.230598 168.47301 509
64.811203 168.47301 509
65.972397 168.47301 509
66.553101 168.47301 509
67.133698 168.47301 509
67.714302 168.47301 509
68.294899 168.47301 509
68.875504 168.47301 509
55.439999 212.759 483
55.991001 212.759 483
56.542 212.759 483
66.710503 205.91701 493
67.272903 205.91701 493
157.472 192.827 512
115.421 175.306 512
116.005 175.306 512
116.589 175.306 512
117.173 175.306 512
117.757 175.306 512
118.341 175.306 512
118.925 175.306 512
125.35 175.306 512
57.016602 166.54601 512
57.600601 166.54601 512
58.1847 166.54601 512
58.7687 166.54601 512
59.352798 166.54601 512
71.787201 194.548 497
72.354103 194.548 497
72.921097 194.548 497
73.487999 194.548 497
116.944 176.13 511
117.527 176.13 511
118.11 176.13 511
118.693 176.13 511
119.276 176.13 511
123.356 176.13 511
123.939 176.13 511
124.522 176.13 511
125.105 176.13 511
125.688 176.13 511
126.271 176.13 511
126.853 176.13 511
56.905201 167.386 511
57.488098 167.386 511
58.070999 167.386 511
58.6539 167.386 511
59.236801 167.386 511
59.819698 167.386 511
60.402599 167.386 511
60.9855 167.386 511
119.624 176.948 510
120.206 176.948 510
120.788 176.948 510
60.866199 168.222 510
61.448002 168.222 510
62.029701 168.222 510
65.520302 168.222 510
66.102097 168.222 510
103.844 181.19099 504
104.419 181.19099 504
104.994 181.19099 504
105.569 181.19099 504
106.143 181.19099 504
55.439999 213.31 483
55.991001 213.31 483
66.553101 169.05299 509
67.133698 169.05299 509
67.714302 169.05299 509
68.294899 169.05299 509
68.875504 169.05299 509
117.987 175.063 513
158.36501 192.619 513
67.272903 206.479 493
67.835197 206.479 493
115.421 175.89 512
116.005 175.89 512
116.589 175.89 512
117.757 175.89 512
71.787201 195.11501 497
72.354103 195.11501 497
72.921097 195.11501 497
73.487999 195.11501 497
85.615997 189.61501 505
116.361 176.71201 511
116.944 176.71201 511
117.527 176.71201 511
118.11 176.71201 511
118.693 176.71201 511
119.276 176.71201 511
122.773 176.71201 511
123.356 176.71201 511
123.939 176.71201 511
124.522 176.71201 511
125.105 176.71201 511
125.688 176.71201 511
126.271 176.71201 511
126.853 176.71201 511
56.905201 167.96899 511
57.488098 167.96899 511
58.070999 167.96899 511
58.6539 167.96899 511
59.236801 167.96899 511
59.819698 167.96899 511
60.402599 167.96899 511
60.9855 167.96899 511
63.193199 168.804 510
63.775002 168.804 510
65.520302 168.804 510
103.844 181.76601 504
104.419 181.76601 504
104.994 181.76601 504
105.569 181.76601 504
66.282303 206.33501 494
67.835197 207.04201 493
68.397598 207.04201 493
115.421 176.474 512
116.005 176.474 512
116.589 176.474 512
71.787201 195.68201 497
72.354103 195.68201 497
72.921097 195.68201 497
73.487999 195.68201 497
116.944 177.295 511
117.527 177.295 511
118.11 177.295 511
118.693 177.295 511
119.276 177.295 511
125.105 177.295 511
125.688 177.295 511
126.271 177.295 511
56.905201 168.552 511
57.488098 168.552 511
58.070999 168.552 511
58.6539 168.552 511
59.236801 168.552 511
59.819698 168.552 511
55.8815 215.235 507
56.459801 215.235 507
57.038101 215.235 507
64.938499 169.386 510
65.520302 169.386 510
66.102097 169.386 510
104.419 182.341 504
65.718803 206.89799 494
66.282303 206.89799 494
66.845802 206.89799 494
67.835197 207.604 493
68.397598 207.604 493
146.10201 189.209 507
146.681 189.209 507
147.259 189.209 507
147.83701 189.209 507
148.416 189.209 507
93.323601 185.45599 500
93.893997 185.45599 500
94.464401 185.45599 500
89.115898 175.31799 502
89.688499 175.31799 502
90.833801 175.31799 502
91.406403 175.31799 502
86.652397 176.112 501
87.223801 176.112 501
106.354 182.12601 505
106.93 182.12601 505
55.8815 215.813 507
56.459801 215.813 507
57.038101 215.813 507
117.642 182.916 504
118.217 182.916 504
99.932297 188.49899 496
100.498 188.49899 496
101.064 188.49899 496
66.282303 207.46201 494
66.845802 207.46201 494
67.409302 207.46201 494
146.10201 189.78799 507
146.681 189.78799 507
147.259 189.78799 507
147.83701 189.78799 507
148.416 189.78799 507
88.145798 175.093 503
88.719597 175.093 503
89.293404 175.093 503
89.867104 175.093 503
90.440903 175.093 503
91.014702 175.093 503
92.753304 186.02699 500
93.323601 186.02699 500
93.893997 186.02699 500
94.464401 186.02699 500
87.970596 175.89101 502
88.543198 175.89101 502
89.115898 175.89101 502
89.688499 175.89101 502
90.261101 175.89101 502
90.833801 175.89101 502
91.406403 175.89101 502
91.978996 175.89101 502
91.429398 186.793 499
91.998596 186.793 499
92.567802 186.793 499
93.137001 186.793 499
93.7062 186.793 499
48.941399 163.76199 507
49.519699 163.76199 507
50.098099 163.76199 507
86.652397 176.683 501
87.223801 176.683 501
88.938301 176.683 501
91.224297 176.683 501
105.202 182.702 505
105.778 182.702 505
106.354 182.702 505
106.93 182.702 505
55.8815 216.39101 507
56.459801 216.39101 507
57.038101 216.39101 507
90.471901 177.47099 500
91.042198 177.47099 500
117.642 183.49001 504
118.217 183.49001 504
118.792 183.49001 504
99.932297 189.065 496
100.498 189.065 496
78.965401 184.274 503
79.5392 184.274 503
80.112999 184.274 503
80.686699 184.274 503
81.260498 184.274 503
146.10201 190.366 507
146.681 190.366 507
147.259 190.366 507
147.83701 190.366 507
148.416 190.366 507
78.808403 185.05299 502
79.381104 185.05299 502
79.953697 185.05299 502
80.526299 185.05299 502
35.973999 221.08501 488
36.530602 221.08501 488
37.087299 221.08501 488
88.145798 175.66701 503
88.719597 175.66701 503
90.440903 175.66701 503
75.7939 185.827 501
76.365402 185.827 501
36.047699 220.423 489
36.605499 220.423 489
90.471901 186.597 500
91.042198 186.597 500
91.612602 186.597 500
92.753304 186.597 500
93.323601 186.597 500
93.893997 186.597 500
94.464401 186.597 500
95.034698 186.597 500
95.605103 186.597 500
96.1754 186.597 500
87.970596 176.463 502
88.543198 176.463 502
89.115898 176.463 502
89.688499 176.463 502
90.261101 176.463 502
90.833801 176.463 502
91.406403 176.463 502
91.978996 176.463 502
91.429398 187.362 499
91.998596 187.362 499
92.567802 187.362 499
93.137001 187.362 499
93.7062 187.362 499
94.275398 187.362 499
86.652397 177.255 501
87.223801 177.255 501
88.938301 177.255 501
89.509804 177.255 501
90.081299 177.255 501
90.652802 177.255 501
91.224297 177.255 501
91.795799 177.255 501
48.941399 164.341 507
49.519699 164.341 507
50.098099 164.341 507
104.626 183.278 505
105.202 183.278 505
105.778 183.278 505
106.354 183.278 505
106.93 183.278 505
119.027 183.278 505
119.603 183.278 505
90.471901 178.04201 500
91.042198 178.04201 500
117.642 184.065 504
118.217 184.065 504
100.498 189.631 496
101.064 189.631 496
78.391602 184.84801 503
78.965401 184.84801 503
79.5392 184.84801 503
80.112999 184.84801 503
80.686699 184.84801 503
81.260498 184.84801 503
76.517899 185.625 502
77.0905 185.625 502
77.663101 185.625 502
78.235802 185.625 502
78.808403 185.625 502
79.381104 185.625 502
79.953697 185.625 502
80.526299 185.625 502
81.098999 185.625 502
33.747299 221.642 488
34.304001 221.642 488
34.8606 221.642 488
35.417301 221.642 488
35.973999 221.642 488
36.530602 221.642 488
37.087299 221.642 488
37.644001 221.642 488
32.143002 220.98 489
32.700901 220.98 489
33.258701 220.98 489
33.816502 220.98 489
34.374298 220.98 489
34.932098 220.98 489
35.489899 220.98 489
36.047699 220.98 489
36.605499 220.98 489
76.365402 186.399 501
76.936897 186.399 501
77.5084 186.399 501
78.079903 186.399 501
31.649799 220.314 490
32.208801 220.314 490
32.7677 220.314 490
33.326698 220.314 490
34.444599 220.314 490
90.471901 187.16701 500
91.042198 187.16701 500
94.464401 187.16701 500
95.034698 187.16701 500
95.605103 187.16701 500
96.1754 187.16701 500
87.970596 177.036 502
88.543198 177.036 502
89.688499 177.036 502
90.261101 177.036 502
90.833801 177.036 502
91.978996 177.036 502
103.679 183.064 506
104.256 183.064 506
126.189 183.064 506
126.767 183.064 506
127.344 183.064 506
90.8601 187.931 499
91.429398 187.931 499
91.998596 187.931 499
92.567802 187.931 499
93.137001 187.931 499
93.7062 187.931 499
97.121498 187.931 499
97.690697 187.931 499
98.259903 187.931 499
86.652397 177.826 501
87.223801 177.826 501
87.795303 177.826 501
88.366798 177.826 501
88.938301 177.826 501
89.509804 177.826 501
90.081299 177.826 501
48.941399 164.91901 507
49.519699 164.91901 507
50.098099 164.91901 507
104.626 183.854 505
105.778 183.854 505
106.354 183.854 505
106.93 183.854 505
119.603 183.854 505
101.268 189.446 497
101.835 189.446 497
102.402 189.446 497
89.901497 178.612 500
90.471901 178.612 500
91.042198 178.612 500
75.672897 184.64 504
76.247803 184.64 504
76.822701 184.64 504
77.397598 184.64 504
77.972603 184.64 504
78.547501 184.64 504
100.498 190.196 496
76.096497 185.42101 503
76.670303 185.42101 503
77.244102 185.42101 503
77.817802 185.42101 503
78.391602 185.42101 503
81.260498 185.42101 503
75.372597 186.198 502
77.0905 186.198 502
77.663101 186.198 502
78.235802 186.198 502
78.808403 186.198 502
79.381104 186.198 502
79.953697 186.198 502
80.526299 186.198 502
33.190601 222.19901 488
33.747299 222.19901 488
34.304001 222.19901 488
34.8606 222.19901 488
35.417301 222.19901 488
35.973999 222.19901 488
36.530602 222.19901 488
37.087299 222.19901 488
37.644001 222.19901 488
29.9118 221.53799 489
30.469601 221.53799 489
31.027399 221.53799 489
31.585199 221.53799 489
32.143002 221.53799 489
32.700901 221.53799 489
33.258701 221.53799 489
33.816502 221.53799 489
34.374298 221.53799 489
34.932098 221.53799 489
35.489899 221.53799 489
29.973 220.873 490
30.5319 220.873 490
31.0909 220.873 490
31.649799 220.873 490
32.208801 220.873 490
32.7677 220.873 490
33.326698 220.873 490
33.885601 220.873 490
34.444599 220.873 490
35.003502 220.873 490
35.5625 220.873 490
88.938301 186.97 501
89.509804 186.97 501
90.471901 187.73801 500
91.042198 187.73801 500
95.034698 187.73801 500
95.605103 187.73801 500
96.1754 187.73801 500
87.970596 177.60899 502
88.543198 177.60899 502
103.679 183.64101 506
104.256 183.64101 506
126.189 183.64101 506
126.767 183.64101 506
127.344 183.64101 506
127.921 183.64101 506
128.498 183.64101 506
92.567802 188.50101 499
93.137001 188.50101 499
93.7062 188.50101 499
94.275398 188.50101 499
97.121498 188.50101 499
97.690697 188.50101 499
98.259903 188.50101 499
86.652397 178.39799 501
87.223801 178.39799 501
87.795303 178.39799 501
88.366798 178.39799 501
88.938301 178.39799 501
89.509804 178.39799 501
90.081299 178.39799 501
105.778 184.431 505
106.354 184.431 505
119.027 184.431 505
119.603 184.431 505
99 190.013 497
99.566902 190.013 497
100.134 190.013 497
101.835 190.013 497
102.402 190.013 497
74.523102 185.215 504
75.098 185.215 504
75.672897 185.215 504
76.247803 185.215 504
76.822701 185.215 504
77.397598 185.215 504
77.972603 185.215 504
81.997002 185.215 504
82.571899 185.215 504
74.948997 185.995 503
75.522697 185.995 503
76.096497 185.995 503
81.834297 185.995 503
75.372597 186.771 502
75.945198 186.771 502
78.808403 186.771 502
79.381104 186.771 502
79.953697 186.771 502
80.526299 186.771 502
81.098999 186.771 502
33.190601 222.755 488
33.747299 222.755 488
34.304001 222.755 488
34.8606 222.755 488
35.417301 222.755 488
35.973999 222.755 488
36.530602 222.755 488
37.087299 222.755 488
37.644001 222.755 488
29.9118 222.09599 489
30.469601 222.09599 489
31.027399 222.09599 489
31.585199 222.09599 489
32.143002 222.09599 489
32.700901 222.09599 489
33.258701 222.09599 489
29.973 221.43201 490
30.5319 221.43201 490
31.0909 221.43201 490
31.649799 221.43201 490
74.651001 187.54201 501
88.938301 187.54201 501
89.509804 187.54201 501
