# .PCD v0.7 - Point Cloud Data file format
VERSION 0.7
FIELDS x y z
SIZE 4 4 4
TYPE F F F
COUNT 1 1 1
WIDTH 2002
HEIGHT 1
VIEWPOINT 0 0 0 1 0 0 0
POINTS 2002
DATA ascii
892.65601 300.42401 1290
887.96198 343.09 1279
889.42102 343.09 1279
893.15698 353.92999 1276
896.06799 353.92999 1276
897.52301 353.92999 1276
913.53198 474.077 1229
920.54102 474.077 1229
926.289 450.80801 1250
906.29999 425.88501 1248
905.66803 389.22299 1263
895.61902 409.53299 1259
911.41602 409.53299 1259
895.638 396.147 1253
918.086 496.46701 1222
883.58502 325.58301 1279
887.96198 325.58301 1279
896.159 279.25101 1308
885.87903 345.19699 1276
887.33398 345.19699 1276
915.67798 499.71799 1230
917.08099 499.71799 1230
904.453 464.64099 1230
884.83197 382.54999 1260
891.36298 310.40601 1301
948.11401 272.36499 1318
902.06403 414.397 1252
933.13098 402.65302 1269
906.70697 298.19101 1306
893.59399 275.82501 1313
938.526 275.82501 1313
921.90399 453.629 1246
907.39203 262.23901 1320
886.36499 389.495 1250
887.78998 389.495 1250
889.216 389.495 1250
892.56598 264.04501 1292
912.815 421.116 1255
904.58002 461.92899 1234
917.24799 461.92899 1234
888.461 375.90302 1257
907.32898 480.85501 1232
915.76202 480.85501 1232
910.16498 499.98901 1217
918.49402 499.98901 1217
901.03302 471.39999 1233
902.44 471.39999 1233
903.84601 471.39999 1233
905.25299 471.39999 1233
906.659 471.39999 1233
926.34998 471.39999 1233
884.86603 303.76801 1298
901.94299 456.423 1242
916.11102 456.423 1242
904.68701 459.19 1238
890.88 273.06 1279
886.50299 264.306 1279
902.45502 265.745 1315
903.95502 265.745 1315
928.34198 272.65601 1305
901.34601 380.57901 1263
878.60101 318.99701 1276
885.87903 318.99701 1276
903.396 428.77701 1244
917.586 428.77701 1244
909.16101 503.276 1225
936.38202 269.21799 1310
889.242 294.84601 1311
890.737 294.84601 1311
913.16901 294.84601 1311
923.255 245.489 1319
925.21503 243.62801 1309
929.69397 243.62801 1309
931.18701 243.62801 1309
926.97302 460.42001 1249
914.33002 526.36603 1217
898.46198 435.50101 1247
899.88397 435.50101 1247
925.48901 435.50101 1247
892.01801 373.92599 1260
893.45599 373.92599 1260
896.33002 373.92599 1260
897.76703 373.92599 1260
904.04797 465.965 1241
928.11401 465.965 1241
878.38898 297.15701 1295
905.54199 463.20599 1245
926.84497 463.20599 1245
920.61401 326.91101 1290
909.625 506.78799 1220
895.45599 269.90201 1271
916.58301 487.66101 1235
914.43298 497.12 1234
915.841 497.12 1234
890.58002 311.47 1287
923.01599 288.203 1308
918.29401 493.897 1226
888.62201 269.505 1297
893.75 312.65201 1298
907.81897 378.595 1266
885.633 387.57101 1253
892.78003 387.57101 1253
907.75299 442.25201 1250
912.03101 442.25201 1250
926.289 442.25201 1250
915.02301 391.99701 1272
924.22998 342.42099 1293
946.354 342.42099 1293
889.96802 269.733 1284
881.34497 256.07501 1253
897.00098 414.371 1265
924.41803 414.371 1265
906.14899 431.642 1240
907.56299 431.642 1240
909.66498 320.27899 1287
918.70599 247.16 1304
886.77002 335.73999 1290
907.052 424.05499 1251
908.479 424.05499 1251
909.90601 424.05499 1251
911.33301 424.05499 1251
899.93103 367.29999 1257
904.23297 367.29999 1257
881.992 261.401 1258
934.237 262.638 1307
907.59698 300.479 1303
895.091 284.81201 1313
909.987 510.11099 1228
912.60101 329.08701 1287
891.15198 376.59698 1269
888.90601 383.29099 1272
891.70099 275.32999 1276
922.086 344.569 1290
923.55701 344.569 1290
933.85797 344.569 1290
905.64398 449.03101 1253
907.073 449.03101 1253
908.50201 449.03101 1253
891.00201 390.013 1275
889.11499 398.992 1262
917.33502 497.45401 1221
887.64301 337.896 1287
899.388 337.896 1287
909.66498 337.896 1287
917.44202 513.61499 1223
916.73297 278.38199 1297
907.05499 252.504 1271
919.79199 475.09201 1228
886.229 293.85501 1300
905.75098 261.12799 1322
907.25897 261.12799 1322
908.76703 261.12799 1322
887.039 313.673 1284
888.50403 313.673 1284
894.54102 278.18399 1310
914.93402 500.71301 1229
891.229 405.71301 1265
918.646 405.71301 1265
884.888 385.633 1256
894.91699 385.633 1256
894.71002 374.58499 1272
942.95599 274.746 1315
891.00201 381.28601 1275
903.15002 322.461 1284
906.52197 465.66501 1229
910.72803 465.66501 1229
882.24902 299.41599 1292
889.61798 299.41599 1292
897.29199 331.24899 1284
906.25702 257.86401 1276
893.16101 314.883 1295
917.08099 491.29901 1230
918.48401 491.29901 1230
915.76001 367.91101 1269
925.54797 451.87201 1249
908.09497 297.15601 1308
889.96802 340.03699 1284
895.82703 340.03699 1284
897.29199 340.03699 1284
907.54401 340.03699 1284
909.00897 340.03699 1284
904.15198 426.966 1247
918.37701 426.966 1247
903.828 264.647 1317
905.33002 264.647 1317
893.53302 275 1302
923.237 275 1302
898.27399 372.56 1275
903.41602 365.879 1272
887.039 348.82501 1284
917.237 254.517 1319
929.61902 242.505 1311
934.10602 242.505 1311
935.60101 242.505 1311
903.84601 462.961 1233
901.70801 472.423 1232
908.73499 472.423 1232
910.14001 472.423 1232
898.5 403.93701 1255
899.93103 403.93701 1255
901.36298 403.93701 1255
918.086 488.104 1222
922.26801 488.104 1222
897.49902 287.259 1297
900.45801 287.259 1297
919.74402 454.685 1245
931.25598 271.58301 1307
908.41901 504.26099 1224
897.47198 370.521 1278
898.92999 370.521 1278
889.96802 357.61301 1284
940.80499 268.13199 1312
912.12799 410.64301 1258
892.56598 308.259 1292
907.30402 308.259 1292
899.729 363.83301 1275
886.34601 330.41901 1298
927.80402 330.41901 1298
908.98999 290.51999 1305
884.966 333.39801 1281
890.81201 333.39801 1281
892.27301 333.39801 1281
887.88898 263.258 1281
887.88898 342.16501 1281
890.81201 342.16501 1281
892.27301 342.16501 1281
893.73401 342.16501 1281
909.80798 350.93301 1281
890.18298 361.77399 1278
886.42798 315.86301 1281
905.36798 460.23001 1237
916.65601 460.23001 1237
891.35498 415.49301 1251
892.78198 415.49301 1251
899.91699 415.49301 1251
880.58301 324.63101 1281
893.73401 324.63101 1281
901.21698 457.47101 1241
902.633 457.47101 1241
891.43298 366.40201 1284
909.95599 302.75299 1300
882.82098 323.74701 1295
901.84601 353.02701 1278
895.61902 383.68201 1259
900.64502 422.211 1254
909.22699 422.211 1254
910.65802 422.211 1254
919.23999 422.211 1254
920.67102 422.211 1254
891.00201 355.10699 1275
919.37799 403.78201 1268
932.396 403.78201 1268
889.92999 390.608 1249
932.79999 440.45499 1253
888.72498 344.28 1278
920.11499 246.049 1306
932.07898 479.20901 1235
916.505 498.12299 1233
886.32098 377.03699 1256
892.052 377.03699 1256
904.08698 429.85001 1243
902.79901 428.95599 1257
904.23297 428.95599 1257
885.185 346.38 1275
888.09399 346.38 1275
889.54797 346.38 1275
903.32001 467.004 1240
928.78003 467.004 1240
884.35199 326.78601 1278
921.15503 247.933 1316
927.51898 464.25299 1244
896.02002 296.13599 1297
899.76898 268.875 1273
889.02301 301.66199 1289
890.49298 301.66199 1289
891.96399 301.66199 1289
893.43402 301.66199 1289
894.90399 301.66199 1289
899.315 301.66199 1289
881.43597 318.039 1278
890.18298 318.039 1278
899.36798 265.01001 1304
911.65997 280.69 1294
886.95398 268.686 1286
885.77502 332.60999 1295
890.45502 283.746 1315
892.03699 402.03299 1258
893.47198 402.03299 1258
906.38702 402.03299 1258
892.16101 311.64999 1300
891.96399 310.48401 1289
924.12402 443.323 1249
887.047 395.34698 1255
901.36298 395.34698 1255
908.63098 260.013 1324
910.14203 260.013 1324
911.65198 260.013 1324
913.16199 260.013 1324
917.69299 260.013 1324
919.20398 260.013 1324
920.87402 514.58899 1222
933.15198 401.83701 1271
936.052 401.83701 1271
906.83099 432.707 1239
908.245 432.707 1239
915.19202 498.43799 1220
894.16498 408.745 1261
880.52002 260.38 1260
907.50098 299.45099 1305
889.87402 375.065 1259
908.92401 486.021 1238
910.336 486.021 1238
914.573 486.021 1238
915.98499 486.021 1238
894.43799 277.32999 1299
892.91302 277.112 1312
894.40997 277.112 1312
934.81799 277.112 1312
879.367 320.20099 1275
880.82098 320.20099 1275
882.276 320.20099 1275
883.72998 320.20099 1275
930.58301 243.216 1323
913.44501 476.104 1227
919.04303 476.104 1227
911.078 319.306 1289
945.89203 273.66101 1317
922.245 415.48499 1264
893.492 413.62799 1254
906.36603 413.62799 1254
908.66901 501.939 1215
916.98499 501.939 1215
896.01398 274.30399 1278
887.55701 386.42499 1268
886.90002 379.73901 1265
905.20001 263.54501 1319
907.77698 450.10101 1252
889.078 292.82199 1302
902.44501 292.82199 1302
886.63898 311.47501 1275
908.586 466.68701 1228
918.42999 328.12799 1289
892.82202 303.89301 1286
895.755 303.89301 1286
897.22198 303.89301 1286
893.43402 373.07999 1262
904.95099 373.07999 1262
889.19501 320.548 1300
907.677 505.24399 1223
920.12 489.09698 1221
903.26801 267.04199 1314
943.73798 267.04199 1314
887.06897 296.116 1310
934.17401 270.50601 1309
893.94702 298.40302 1294
929.388 427.10599 1260
889.849 400.11401 1261
909.987 400.11401 1261
924.98901 343.63 1292
935.30603 343.63 1292
936.78003 343.63 1292
947.09601 343.63 1292
948.57001 343.63 1292
893.95502 473.444 1231
895.35901 473.444 1231
910.80603 473.444 1231
923.44397 473.444 1231
904.95203 393.422 1258
939.33197 438.64401 1256
904.51898 463.991 1232
882.07001 257.298 1252
883.49799 257.298 1252
906.66699 336.95001 1289
908.138 336.95001 1289
915.48999 336.95001 1289
901.36298 366.448 1259
907.49103 321.49701 1286
908.95801 321.49701 1286
891.966 406.83401 1264
884.159 262.62799 1257
885.59302 262.62799 1257
895.63599 386.758 1255
888.14899 308.383 1305
895.55798 371.08099 1265
912.87402 371.08099 1265
899.94702 289.474 1307
917.586 455.73901 1244
889.27502 270.987 1283
904.63599 461.26801 1236
920.466 248.679 1328
901.62299 330.298 1286
910.42499 330.298 1286
892.20203 279.76801 1283
898.05603 279.76801 1283
883.16199 262.44601 1270
887.552 345.77301 1289
922.841 345.77301 1289
933.13397 345.77301 1289
934.604 345.77301 1289
915.76202 499.125 1232
917.16699 499.125 1232
915.75403 375.73999 1271
918.19202 495.884 1224
890.30298 382.44 1274
901.086 470.75601 1235
929.26202 470.75601 1235
910.21002 480.228 1234
914.43298 480.228 1234
888.42102 339.10001 1286
908.95801 339.10001 1286
897.77197 416.586 1250
895.63 411.75 1257
911.40198 411.75 1257
898.90002 286.09201 1312
930.328 286.09201 1312
921.68103 282.85999 1304
896.117 373.72101 1274
922.27502 373.72101 1274
886.95398 347.90201 1286
917.76001 347.90201 1286
892.40002 380.42801 1277
899.52002 323.67401 1283
896.93799 468.04099 1239
898.35101 468.04099 1239
929.44501 468.04099 1239
902.78497 423.30301 1253
905.64398 423.30301 1253
908.50201 423.30301 1253
911.36102 423.30301 1253
914.21899 423.30301 1253
915.64899 423.30301 1253
929.20001 441.53201 1252
926.91101 462.52802 1247
907.11102 391.48401 1261
899.80603 367.04099 1271
901.25598 367.04099 1271
895.12903 332.45499 1283
928.19202 465.298 1243
941.05798 242.07201 1325
942.56897 242.07201 1325
944.08099 242.07201 1325
904.77698 430.92099 1242
889.27502 341.23599 1283
893.66602 341.23599 1283
895.12903 341.23599 1283
896.59302 341.23599 1283
899.52002 341.23599 1283
906.83801 341.23599 1283
908.30103 341.23599 1283
898.22699 371.68701 1277
886.37 391.71899 1248
887.79401 391.71899 1248
913.05103 499.42001 1219
884.862 384.81201 1258
896.34198 384.81201 1258
890.995 316.116 1294
911.65997 316.116 1294
891.19299 404.909 1267
920.09802 404.909 1267
884.51202 300.65701 1291
885.98401 300.65701 1291
887.45697 300.65701 1291
894.82001 300.65701 1291
896.29303 300.65701 1291
900.47601 365.00101 1274
927.87 430.048 1256
902.70203 437.64301 1245
895.35101 279.465 1309
895.95697 369.64001 1280
925.159 369.64001 1280
910.64502 502.698 1227
906.177 352.11899 1280
909.09698 352.11899 1280
896.172 272.57199 1319
888.65601 360.88 1280
914.93799 360.88 1280
909.30603 502.91101 1214
893.66602 367.57999 1283
924.40002 367.57999 1283
887.19598 343.358 1280
891.57599 343.358 1280
940.73999 276.035 1314
905.06598 262.43701 1321
906.573 262.43701 1321
888.47803 378.168 1255
916.85602 264.24899 1293
889.487 354.207 1277
899.68298 354.207 1277
901.14001 354.207 1277
882.81598 325.83701 1280
890.11603 325.83701 1280
888.84998 356.28201 1274
890.30298 356.28201 1274
915.49701 477.11499 1226
916.896 477.11499 1226
918.29401 477.11499 1226
884.276 317.077 1280
895.95697 317.077 1280
914.84198 444.392 1248
916.26599 444.392 1248
917.68903 444.392 1248
919.11298 444.392 1248
923.38397 444.392 1248
894.33099 276.27301 1301
889.487 345.46701 1277
890.94299 345.46701 1277
924.84302 260.82901 1298
932.86499 257.375 1303
916.99103 493.302 1228
918.39099 493.302 1228
886.19897 389.53101 1264
946.67499 265.94699 1316
901.797 273.27301 1280
906.935 506.22501 1222
887.39697 347.56201 1274
888.84998 347.56201 1274
895.63 403.147 1257
897.06403 403.147 1257
898.47998 382.853 1261
884.06598 304.00201 1299
909.25598 304.00201 1299
911.66101 525.84003 1219
913.05103 525.84003 1219
914.44202 525.84003 1219
915.83197 525.84003 1219
917.22302 525.84003 1219
894.90601 291.785 1304
896.39301 291.785 1304
897.88098 291.785 1304
913.578 409.858 1260
887.771 396.46301 1254
897.784 396.46301 1254
905.60199 426.22601 1249
896.71899 269.423 1311
920.33502 247.537 1330
924.427 243.814 1310
887.45697 318.32901 1291
907.185 458.28201 1228
891.854 402.97 1270
920.828 402.97 1270
932.41803 402.97 1270
935.315 402.97 1270
885.64697 389.806 1251
891.35498 389.806 1251
877.83301 319.24701 1277
888.03003 319.24701 1277
907.26001 509.539 1230
910.06598 509.539 1230
894.63202 474.46201 1230
912.87201 474.46201 1230
922.69299 474.46201 1230
915.01801 465.01901 1231
888.90601 270.11401 1272
888.03003 310.50699 1277
893.59302 261.14899 1285
892.04797 319.556 1302
921.75201 319.556 1302
897.29901 285.177 1301
899.83099 288.42401 1309
959.12903 240.923 1327
909.48102 281.94901 1293
880.61798 256.27899 1254
886.19897 380.88 1264
915.01801 500.12399 1231
889.19598 269.94299 1285
904.495 311.71201 1288
937.15302 439.72699 1255
890.66101 278.73801 1285
917.16699 490.69299 1232
918.26599 456.79099 1243
899.91803 374.22299 1261
898.94897 471.78201 1234
900.35699 471.78201 1234
904.005 459.561 1239
918.138 459.561 1239
906.659 481.246 1233
915.09802 481.246 1233
894.27399 285.02899 1314
933.245 285.02899 1314
890.58099 401.23401 1260
909.26599 401.23401 1260
882.45599 320.52701 1288
936.75403 342.686 1294
938.22998 342.686 1294
941.18201 342.686 1294
887.02698 394.54401 1257
919.89801 251.14 1325
889.08301 266.974 1264
890.52399 266.974 1264
909.52301 500.39999 1218
892.70099 407.953 1263
917.19397 407.953 1263
887.93701 306.25601 1296
885.94397 312.68399 1274
888.302 378.89401 1267
893.85699 275.54599 1277
916.79602 487.50601 1224
901.86298 469.07501 1238
930.10699 469.07501 1238
884.90997 387.88 1254
904.927 261.32501 1323
912.70801 503.88 1213
914.09198 503.88 1213
915.47498 503.88 1213
953.28601 271.478 1321
899.21198 367.59201 1258
906.38702 367.59201 1258
894.84998 372.229 1264
886.573 266.806 1277
904.05298 266.806 1277
893.59302 305.12299 1285
895.05902 305.12299 1285
896.52502 305.12299 1285
899.45599 305.12299 1285
926.59302 414.698 1266
928.03699 414.698 1266
894.13397 274.95401 1316
892.77899 417.67801 1249
894.20398 417.67801 1249
895.62903 417.67801 1249
933.58899 478.57401 1237
887.45697 344.83701 1291
925.74597 344.83701 1291
936.05499 344.83701 1291
901.34399 442.60599 1251
902.771 442.60599 1251
907.052 442.60599 1251
909.90601 442.60599 1251
898.49701 406.15201 1253
902.388 313.918 1285
887.02899 321.78299 1299
901.55603 338.15799 1288
908.90198 338.15799 1288
913.31 338.15799 1288
904.92102 424.39401 1252
905.46399 431.98999 1241
916.789 431.98999 1241
891.18402 275.40799 1290
911.78497 275.40799 1290
912.302 526.79797 1218
913.69098 526.79797 1218
916.46997 526.79797 1218
916.14801 478.12299 1225
918.94299 478.12299 1225
881.45697 299.64801 1293
894.73199 299.64801 1293
925.35498 244.53999 1322
903.01001 264.84799 1318
905.32001 322.71301 1285
906.78497 322.71301 1285
908.25098 322.71301 1285
904.23401 365.59201 1261
905.672 365.59201 1261
928.83197 242.69 1312
908.97803 507.20401 1221
910.49103 438.711 1244
911.90997 438.711 1244
896.974 370.22198 1267
910.28302 297.383 1309
917.73999 510.67499 1216
911.43103 399.30801 1263
936.60797 475.87399 1241
920.65601 346.974 1288
922.12598 346.974 1288
890.44299 309.634 1304
920.099 374.88 1273
921.22101 445.45801 1247
902.633 287.48099 1298
906.13098 272.23801 1282
889.19598 340.302 1285
899.45599 340.302 1285
960.57501 239.771 1329
962.091 239.771 1329
920.81598 406.03299 1266
900.54602 368.20099 1270
915.59003 484.897 1228
916.99103 484.897 1228
899.258 290.742 1306
889.802 355.789 1288
890.20697 272.04401 1295
918.27399 272.04401 1295
914.11401 349.09698 1285
891.50702 307.33499 1282
897.52301 372.85199 1276
884.19501 316.10999 1282
898.81897 316.10999 1282
882.45898 302.98599 1301
913.62402 302.98599 1301
901.22198 366.16699 1273
902.67401 366.16699 1273
895.89398 324.884 1282
893.79797 379.564 1279
921.94299 475.479 1229
895.89398 342.43301 1282
897.35602 342.43301 1282
906.13098 342.43301 1282
907.59302 342.43301 1282
893.15698 364.11899 1276
894.612 364.11899 1276
896.06799 364.11899 1276
897.52301 364.11899 1276
898.979 364.11899 1276
896.716 370.811 1279
916.69202 497.86099 1222
903.453 427.30899 1248
923.302 268.646 1300
925.14203 368.75601 1282
905.85699 466.04401 1230
912.87201 466.04401 1230
939.37 261.746 1310
896.34998 404.259 1256
897.78302 404.259 1256
920.98499 514.03497 1224
914.27502 501.121 1230
899.71002 287.36899 1311
928.12402 287.36899 1311
889.42102 353.30301 1279
904.01001 353.30301 1279
886.50299 344.54901 1279
890.88 344.54901 1279
892.33899 344.54901 1279
893.15698 355.38501 1276
894.612 355.38501 1276
896.06799 355.38501 1276
897.52301 355.38501 1276
895.61902 410.96899 1259
889.92102 397.57599 1253
891.34998 397.57599 1253
892.78003 397.57599 1253
894.20898 397.57599 1253
895.638 397.57599 1253
913.59601 397.36801 1266
878.94299 296.36499 1298
884.83197 383.987 1260
897.76703 383.987 1260
888.24103 301.896 1290
928.45697 434.04401 1251
929.88397 434.04401 1251
902.06403 415.82501 1252
907.388 501.37701 1217
908.77698 501.37701 1217
918.49402 501.37701 1217
918.65601 463.33701 1234
883.58502 327.04199 1279
886.50299 327.04199 1279
887.96198 327.04199 1279
904.78302 260.20901 1325
906.29498 260.20901 1325
907.80603 260.20901 1325
921.90399 455.04999 1246
880.66699 318.28799 1279
892.33899 318.28799 1279
887.39697 260.366 1274
896.81403 472.80701 1233
899.62701 472.80701 1233
901.03302 472.80701 1233
903.84601 472.80701 1233
905.25299 472.80701 1233
906.659 472.80701 1233
908.06598 472.80701 1233
926.34998 472.80701 1233
917.90698 417.707 1262
934.66602 283.961 1316
936.16699 283.961 1316
901.70801 482.26099 1232
931.68402 404.10001 1269
934.57898 404.10001 1269
884.93903 390.92099 1250
912.815 422.548 1255
905.26099 277.70401 1287
894.19598 377.33701 1257
889.42102 309.534 1279
916.85901 251.67 1312
904.68701 460.60199 1238
897.651 280.74301 1308
918.94397 457.84 1242
928.26501 243.399 1324
929.776 243.399 1324
947.89899 243.399 1324
882.93201 326.19699 1293
924.22998 326.19699 1293
889.61798 265.51901 1292
881.38098 299.681 1306
895.49298 273.86899 1318
937.02802 277.323 1313
901.97699 430.19601 1244
903.396 430.19601 1244
929.34802 429.298 1258
901.13397 470.10699 1237
930.76703 470.10699 1237
884.71301 265.952 1266
894.82202 265.952 1266
906.375 388.70401 1266
898.17401 274.51901 1279
904.38098 263.74399 1320
914.31299 395.41501 1269
885.49799 382.01999 1263
886.50299 265.76501 1279
901.30701 436.92401 1247
877.146 320.452 1276
878.60101 320.452 1276
885.29797 319.55399 1290
912.40802 508.17999 1220
932.14899 258.66299 1302
918.19202 479.129 1224
913.02502 498.52701 1234
914.43298 498.52701 1234
915.841 498.52701 1234
916.58301 489.07001 1235
889.14398 375.36301 1260
885.87903 311.71899 1276
887.35699 335.04599 1293
919.80499 335.04599 1293
900.95502 267.245 1315
891.09198 274.36099 1292
893.43402 409.069 1262
913.45599 443.67801 1250
885.633 389 1253
894.20898 389 1253
906.14899 433.056 1240
910.39203 433.056 1240
911.80701 433.056 1240
913.22101 433.056 1240
914.63599 433.056 1240
916.04999 433.056 1240
913.16901 296.34201 1311
885.29797 328.383 1290
917.67102 328.383 1290
906.375 380.039 1266
922.22803 245.121 1309
879.86603 298.634 1295
896.11603 298.634 1295
935.85303 476.905 1240
922.52802 320.79501 1301
881.34497 257.504 1253
921.75098 246.994 1319
903.79199 312.93799 1287
896.35199 407.25601 1252
924.41803 415.814 1265
919.64301 248.867 1329
907.052 425.48199 1251
921.32202 425.48199 1251
898.49799 368.73401 1257
901.36499 368.73401 1257
902.79901 368.73401 1257
904.23297 368.73401 1257
908.521 413.95801 1255
888.50403 262.41 1284
916.24402 485.90201 1227
911.43903 286.44101 1300
907.10901 373.375 1263
894.03998 283.20401 1292
888.50403 271.198 1284
909.00897 271.198 1284
915.55603 289.69601 1308
934.55499 343.896 1293
938.97998 343.896 1293
946.354 343.896 1293
950.77899 343.896 1293
914.54901 498.84698 1221
887.34003 308.62 1306
913.89801 486.414 1239
891.43298 279.98599 1284
905.89899 337.21201 1290
917.67102 337.21201 1290
918.70599 248.64799 1304
920.19299 248.64799 1304
921.19299 476.492 1228
912.13 502.11499 1229
893.53302 267.57401 1302
932.74701 264.129 1307
888.90601 384.742 1272
900.64203 366.73901 1260
903.79199 330.55499 1287
905.26099 330.55499 1287
906.729 330.55499 1287
908.19702 330.55499 1287
909.66498 330.55499 1287
912.60101 330.55499 1287
890.20697 307.49701 1295
887.00201 393.73499 1259
907.92401 467.06699 1229
910.72803 467.06699 1229
938.74298 242.254 1326
940.25598 242.254 1326
958.40698 242.254 1326
908.03003 502.35199 1216
896.58899 286.31 1313
898.08698 286.31 1313
898.56897 283.077 1305
904.23401 427.44501 1261
905.672 427.44501 1261
907.26001 457.62601 1230
925.02899 346.04099 1290
932.38599 346.04099 1290
884.888 387.06601 1256
892.89801 306.35001 1284
894.362 306.35001 1284
891.229 407.15601 1265
920.08899 407.15601 1265
900.85602 339.36401 1287
908.19702 339.36401 1287
887.039 315.138 1284
901.68597 315.138 1284
887.33398 268.05301 1276
893.25897 376.03601 1272
925.54797 453.297 1249
884.86603 323.01599 1298
883.263 295.33801 1300
899.57501 295.33801 1300
902.729 428.38901 1247
904.15198 428.38901 1247
916.422 483.27301 1231
917.18201 382.741 1275
898.39001 369.35901 1269
917.20801 369.35901 1269
901.68597 323.92599 1284
903.15002 323.92599 1284
919.47998 489.49799 1222
922.26801 489.49799 1222
903.84601 464.36801 1233
917.91101 464.36801 1233
919.20398 252.461 1324
897.492 473.828 1232
898.89697 473.828 1232
900.30298 473.828 1232
901.70801 473.828 1232
903.11298 473.828 1232
910.14001 473.828 1232
925.599 473.828 1232
895.34601 272.77899 1320
951.05798 272.77899 1320
917.005 348.172 1287
884.10999 332.71399 1284
904.24298 262.63599 1322
883.72302 300.89001 1292
898.461 300.89001 1292
891.96399 276.66501 1289
919.74402 456.10501 1245
893.45502 276.246 1315
942.95599 276.246 1315
881.17603 259.55899 1263
897.06799 405.36899 1255
898.5 405.36899 1255
899.93103 405.36899 1255
901.36298 405.36899 1255
902.79401 405.36899 1255
893.16101 316.36099 1295
929.14099 435.12299 1250
888.50403 341.50201 1284
898.75598 341.50201 1284
901.68597 341.50201 1284
906.08002 341.50201 1284
910.474 341.50201 1284
901.21698 458.88699 1241
904.04797 458.88699 1241
919.62 458.88699 1241
916.474 367.32999 1272
915.83197 509.15399 1219
914.54901 525.31 1221
915.94202 525.31 1221
917.33502 525.31 1221
918.72803 525.31 1221
890.58002 356.98099 1287
882.73102 298.64801 1308
899.91699 416.92001 1251
887.039 350.29001 1284
913.40302 350.29001 1284
897.47198 371.978 1278
899.729 365.28799 1275
889.78601 398.49799 1265
897.586 471.13699 1236
900.40601 471.13699 1236
889.96802 359.078 1284
916.33197 359.078 1284
902.07501 423.64099 1254
907.797 423.64099 1254
913.51898 423.64099 1254
893.73401 343.62701 1281
906.88501 343.62701 1281
908.34601 343.62701 1281
902.32501 266.14999 1317
890.81201 308.55701 1281
892.27301 308.55701 1281
891.64099 363.23199 1278
914.966 363.23199 1278
883.505 317.32401 1281
898.11798 317.32401 1281
882.04401 326.09201 1281
892.27301 326.09201 1281
893.73401 326.09201 1281
885.65601 392.03299 1249
889.92999 392.03299 1249
916.047 480.133 1223
912.35602 480.617 1235
913.76501 480.617 1235
923.14801 245.862 1321
934.10602 244 1311
935.60101 244 1311
892.56598 309.733 1292
915.09802 499.53 1233
931.25598 273.07401 1307
922.271 405.228 1268
930.94897 405.228 1268
932.396 405.228 1268
933.84198 405.228 1268
939.30798 269.629 1312
917.24799 490.082 1234
904.08698 431.26801 1243
918.26599 431.26801 1243
924.84302 331.89999 1298
892.61499 292.008 1305
894.104 292.008 1305
906.013 292.008 1305
903.32001 468.418 1240
892.45697 356.561 1275
883.263 304.23599 1300
924.18298 325.224 1295
885.81 345.73801 1278
890.995 273.31 1294
887.75403 378.47 1256
890.61902 378.47 1256
930.35699 465.672 1244
902.005 437.995 1246
923.32501 437.995 1246
914.84399 512.495 1227
885.185 347.83499 1275
886.63898 347.83499 1275
911.72498 318.57501 1292
958.33698 241.105 1328
961.367 241.105 1328
943.73798 259.548 1314
912.40802 499.82999 1220
890.18298 319.49701 1278
922.59198 269.92099 1299
889.02301 303.13199 1289
890.49298 303.13199 1289
891.96399 303.13199 1289
893.43402 303.13199 1289
914.15002 444.74799 1249
878.26599 297.616 1297
896.02002 297.616 1297
917.297 285.396 1302
890.45001 396.54999 1268
893.47198 403.46701 1258
894.90698 403.46701 1258
899.02399 288.64401 1310
899.93103 396.77899 1255
893.94702 282.16699 1294
888.42102 270.15302 1286
927.63098 266.49701 1304
887.25201 334.08701 1295
881.95697 261.81699 1260
915.98499 487.43399 1238
937.15997 263.04001 1309
908.66901 503.32501 1215
914.84399 477.504 1227
920.44299 477.504 1227
895.60303 410.18301 1261
885.24799 261.61401 1273
897.05499 376.50101 1259
885.19702 327.418 1292
903.47498 426.56799 1250
904.901 426.56799 1250
920.586 426.56799 1250
903.09003 278.95499 1286
893.64398 313.133 1300
895.63599 408.358 1251
897.06299 408.358 1251
898.48999 408.358 1251
891.95502 285.246 1315
893.45502 285.246 1315
885.65997 245.918 1245
887.08002 245.918 1245
906.36603 415.05899 1254
920.80298 416.927 1264
922.245 416.927 1264
898.45599 282.01999 1307
888.34302 267.185 1265
906.349 451.52899 1252
907.77698 451.52899 1252
880.70599 300.94 1305
928.513 433.30899 1253
902.59003 261.52301 1324
904.10101 261.52301 1324
919.20398 261.52301 1324
906.52197 458.655 1229
904.216 381.18201 1265
891.64099 275.76199 1278
920.12 490.48999 1221
921.513 490.48999 1221
915.67798 484.284 1230
885.185 312.92899 1275
888.09399 312.92899 1275
892.91302 278.60901 1312
894.40997 278.60901 1312
891.995 374.51901 1262
902.07202 374.51901 1262
911.01703 526.27197 1220
886.67102 336.26099 1292
919.09399 336.26099 1292
917.85999 510.12601 1218
893.95502 474.84799 1231
896.763 474.84799 1231
898.16803 474.84799 1231
899.57202 474.84799 1231
912.21002 474.84799 1231
945.89203 275.16299 1317
924.54602 244.72501 1323
904.51898 465.396 1232
917.16699 465.396 1232
892.82202 305.35999 1286
898.68903 305.35999 1286
928.04199 242.875 1313
915.48999 329.599 1289
904.95203 394.85699 1258
939.33197 440.077 1256
883.49799 258.72699 1252
911.177 422.76099 1243
912.59497 422.76099 1243
902.005 429.46701 1246
903.427 429.46701 1246
904.63599 462.67801 1236
896.90002 299.879 1294
895.63599 388.189 1255
897.06799 388.189 1255
891.966 408.276 1264
919.362 408.276 1264
932.35797 345.104 1292
933.83197 345.104 1292
938.25299 345.104 1292
947.09601 345.104 1292
948.57001 345.104 1292
918.19202 497.28 1224
934.17401 271.99899 1309
916.69202 481.134 1222
898.771 268.54099 1314
900.27002 268.54099 1314
943.73798 268.54099 1314
914.35602 500.53 1232
896.85999 472.16501 1235
898.26898 472.16501 1235
929.26202 472.16501 1235
903.72699 338.42099 1289
908.138 338.42099 1289
915.48999 338.42099 1289
881.086 322.96399 1286
893.06097 315.37 1297
928.39801 436.20001 1249
918.29401 513.47601 1226
904.81097 287.702 1299
890.73901 272.45001 1283
884.02002 331.76501 1286
900.15601 331.76501 1286
897.784 406.47601 1254
900.64502 406.47601 1254
898.45599 290.965 1307
911.87402 290.965 1307
903.51099 365.88199 1262
897.77197 418.01199 1250
896.93799 469.45401 1239
898.35101 469.45401 1239
899.76501 469.45401 1239
933.13397 347.24301 1289
895.63 413.18399 1257
911.40198 413.18399 1257
912.836 413.18399 1257
919.54797 248.31 1318
921.052 248.31 1318
908.88 500.811 1219
916.14801 487.905 1225
892.47101 308.73599 1294
888.42102 340.56699 1286
901.62299 340.56699 1286
907.49103 340.56699 1286
904.21399 424.733 1253
907.073 424.733 1253
904.08698 466.716 1243
931.02802 466.716 1243
904.77698 432.33801 1242
918.94397 432.33801 1242
906.349 442.95999 1252
893.66602 307.57501 1283
920.466 250.194 1328
894.66302 375.17401 1274
900.98297 316.35599 1283
912.07599 504.29599 1214
886.97198 392.922 1261
907.11102 392.922 1261
891.36298 268.85199 1301
886.37 393.142 1248
887.79401 393.142 1248
886.95398 349.36899 1286
909.24597 504.09698 1227
918.62 381.884 1277
898.05603 325.13699 1283
899.80603 368.491 1271
930.54303 265.41599 1306
884.862 386.24701 1258
897.77698 386.24701 1258
909.80298 439.06299 1245
914.06299 439.06299 1245
915.48297 439.06299 1245
916.90399 439.06299 1245
918.32397 439.06299 1245
919.74402 439.06299 1245
922.651 324.24701 1297
884.88501 333.91901 1283
897.40302 287.58801 1312
898.90002 287.58801 1312
891.19299 406.354 1267
922.98901 406.354 1267
918.29401 478.513 1226
900.47601 366.45401 1274
916.46198 366.45401 1274
916.65601 488.45099 1237
887.81201 342.70001 1283
899.52002 342.70001 1283
905.37402 342.70001 1283
909.76501 342.70001 1283
889.888 358.17099 1286
898.883 296.59299 1299
887.81201 351.48099 1283
912.69202 351.48099 1283
892.40002 364.40399 1277
915.70697 364.40399 1277
890.995 317.59201 1294
892.47101 317.59201 1294
889.27502 360.26199 1283
915.61902 360.26199 1283
885.98401 302.13 1291
887.45697 302.13 1291
914.84198 445.81601 1248
916.26599 445.81601 1248
917.68903 445.81601 1248
919.11298 445.81601 1248
920.53601 445.81601 1248
923.38397 445.81601 1248
927.45502 243.58299 1325
906.177 353.57901 1280
907.63702 353.57901 1280
880.47803 260.793 1262
890.11603 362.34 1280
916.39801 362.34 1280
918.39099 494.703 1228
895.12903 369.043 1283
910.27002 527.23102 1219
911.66101 527.23102 1219
896.84399 280.95801 1309
888.84998 357.73499 1274
890.30298 357.73499 1274
891.75702 357.73499 1274
891.27197 277.92001 1288
889.487 355.664 1277
899.68298 355.664 1277
901.14001 355.664 1277
882.81598 327.297 1280
890.11603 327.297 1280
891.57599 327.297 1280
920.758 491.48001 1220
879.89502 318.53699 1280
894.49597 318.53699 1280
895.95697 318.53699 1280
919.58899 523.80798 1224
920.98499 523.80798 1224
916.85602 265.724 1293
888.65601 309.776 1280
891.57599 309.776 1280
948.83301 274.077 1319
892.40002 346.92401 1277
892.77502 277.534 1314
939.24103 277.534 1314
918.50897 253.78 1323
907.185 459.68301 1228
908.586 459.68301 1228
895.63 404.58099 1257
905.66699 404.58099 1257
907.10101 404.58099 1257
910.383 299.91 1307
924.13 333.12399 1297
889.20099 397.89301 1254
897.784 397.89301 1254
903.55902 263.944 1321
902.75201 427.651 1249
888.84998 349.01501 1274
891.57599 274.733 1280
893.229 475.86499 1230
894.63202 475.86499 1230
896.03497 475.86499 1230
897.43799 475.86499 1230
898.841 475.86499 1230
914.27502 475.86499 1230
924.09601 475.86499 1230
894.91998 409.457 1250
896.34601 409.457 1250
897.77197 409.457 1250
922.27698 404.41901 1270
936.76398 404.41901 1270
892.78198 391.233 1251
907.32898 456.96399 1232
908.73499 456.96399 1232
910.14001 456.96399 1232
886.297 377.63699 1258
905.18903 466.423 1231
915.01801 466.423 1231
887.02899 305.48401 1299
913.70099 305.48401 1299
900.13898 267.44901 1316
946.67499 267.44901 1316
893.29901 274.35501 1306
888.95599 293.272 1304
937.09698 270.91901 1311
913.61401 501.52802 1231
914.97601 422.884 1256
916.40802 422.884 1256
917.841 422.884 1256
886.573 320.703 1277
888.03003 320.703 1277
903.90399 463.71201 1235
879.18799 257.70901 1254
880.61798 257.70901 1254
917.16699 492.09799 1232
889.487 311.96301 1277
935.72101 441.15799 1255
898.94897 473.19 1234
890.40601 395.72699 1270
904.005 460.974 1239
903.84601 482.65201 1233
916.505 482.65201 1233
910.44397 423.83801 1242
884.13 263.04501 1259
879.06702 298.86499 1296
901.28198 430.54199 1245
901.35699 375.66101 1261
913.62402 286.66101 1301
899.83099 289.91699 1309
915.40002 488.90302 1224
916.79602 488.90302 1224
918.19202 488.90302 1224
904.23297 395.97699 1257
892.01801 402.672 1260
909.26599 402.672 1260
910.703 402.672 1260
899.18201 437.27399 1248
900.60602 437.27399 1248
926.23102 437.27399 1248
896.21399 470.487 1238
897.62598 470.487 1238
899.039 470.487 1238
900.45099 470.487 1238
937.93701 242.437 1327
947.02002 242.437 1327
954.58801 242.437 1327
960.64301 242.437 1327
908.505 505.08499 1226
892.70099 409.39301 1263
917.19397 409.39301 1263
911.841 321.99701 1288
900.64697 369.02701 1258
931.69501 467.75699 1242
881.51898 302.19699 1304
911.26801 302.19699 1304
892.40002 277.00299 1277
906.26898 465 1246
930.43201 465 1246
894.27399 286.52802 1314
895.77301 286.52802 1314
933.245 286.52802 1314
915.08099 528.18799 1218
892.77899 419.103 1249
894.20398 419.103 1249
889.41602 307.73499 1296
893.40802 373.67099 1264
916.14801 479.51999 1225
917.54498 479.51999 1225
920.34003 479.51999 1225
905.46399 433.40601 1241
918.20502 433.40601 1241
915.91498 489.466 1236
912.76001 444.03299 1251
927.03003 444.03299 1251
895.638 407.58099 1253
898.49701 407.58099 1253
899.92603 407.58099 1253
896.52502 306.58899 1285
897.99103 306.58899 1285
903.49298 425.82199 1252
904.92102 425.82199 1252
906.349 425.82199 1252
895.22998 280.078 1298
919.04303 495.70001 1227
879.82098 254.42799 1259
881.25702 254.42799 1259
882.69299 254.42799 1259
927.21899 346.30899 1291
937.52698 346.30899 1291
890.40601 378.34201 1270
903.41803 262.83499 1323
895.224 279.892 1311
922.90601 421.022 1259
924.34198 421.022 1259
913.31 339.62799 1288
922.59198 323.26501 1299
893.16101 264.65799 1295
892.633 276.45599 1316
881.867 324.17801 1285
905.32001 324.17801 1285
906.78497 324.17801 1285
908.25098 324.17801 1285
889.82001 400.74899 1263
882.93201 301.12299 1293
900.63098 301.12299 1293
915.53198 446.88101 1247
916.95398 446.88101 1247
918.37701 446.88101 1247
919.79901 446.88101 1247
921.22101 446.88101 1247
922.64398 446.88101 1247
913.53198 511.92899 1229
898.49799 387.37399 1257
922.33899 246.048 1322
924.34198 244.187 1312
897.99103 332.97299 1285
886.86401 348.44299 1288
920.65601 348.44299 1288
901.50702 266.35199 1318
949.617 266.35199 1318
910.28302 298.87601 1309
883.914 265.13501 1269
885.65698 264.92599 1282
887.12 264.92599 1282
895.30701 476.88 1229
896.70801 476.88 1229
898.10999 476.88 1229
923.34497 476.88 1229
887.72998 341.76801 1285
905.32001 341.76801 1285
891.50702 273.70001 1282
904.66803 273.70001 1282
941.52197 269.83401 1313
907.26001 467.44699 1230
912.87201 467.44699 1230
914.27502 467.44699 1230
896.06799 374.30701 1276
920.98499 515.43103 1224
906.59302 457.99799 1231
910.80603 457.99799 1231
910.06598 502.52399 1230
911.46899 502.52399 1230
919.18701 357.258 1288
890.04401 308.798 1282
908.00598 309.97198 1293
902.03003 428.73199 1248
920.53601 428.73199 1248
891.80902 292.23199 1306
908.19702 292.23199 1306
956.02698 241.287 1329
957.54303 241.287 1329
907.388 502.76599 1217
888.58197 335.121 1282
890.04401 335.121 1282
891.50702 335.121 1282
887.12 343.89499 1282
895.89398 343.89499 1282
897.35602 343.89499 1282
906.13098 343.89499 1282
896.06799 365.57401 1276
897.52301 365.57401 1276
898.979 365.57401 1276
916.44501 365.57401 1276
880.883 294.53799 1290
882.35498 294.53799 1290
896.34998 405.69199 1256
927.354 372.26999 1279
882.45898 304.47 1301
919.328 247.729 1307
886.93903 392.10501 1263
895.89398 370.21799 1282
883.50201 325.47501 1296
914.289 412.405 1259
899.02301 270.539 1274
931.31201 435.47101 1251
889.42102 354.76199 1279
904.01001 354.76199 1279
905.46899 354.76199 1279
906.92798 354.76199 1279
884.83197 385.42401 1260
899.20502 385.42401 1260
905.25299 474.21301 1233
906.659 474.21301 1233
908.06598 474.21301 1233
909.47198 474.21301 1233
902.06403 417.25299 1252
888.78998 356.841 1276
894.612 356.841 1276
896.06799 356.841 1276
897.52301 356.841 1276
898.979 356.841 1276
900.43402 356.841 1276
918.83698 489.89801 1223
920.35303 249.62399 1317
904.68701 462.01401 1238
920.22101 462.01401 1238
903.35999 459.25699 1242
882.79303 251.38499 1251
884.21997 251.38499 1251
885.64697 251.38499 1251
887.07397 251.38499 1251
939.37 263.241 1310
916.46698 419.146 1262
917.90698 419.146 1262
906.36603 506.07001 1225
907.76398 506.07001 1225
924.44598 405.548 1269
925.89301 405.548 1269
927.341 405.548 1269
936.026 405.548 1269
891.70099 348.108 1276
888.24103 303.367 1290
897.08099 266.702 1305
898.21399 288.86499 1311
926.62799 288.86499 1311
881.21899 262.02499 1261
883.58502 328.50101 1279
885.04401 328.50101 1279
886.50299 328.50101 1279
887.96198 328.50101 1279
919.77301 251.519 1327
887.02698 378.771 1257
892.76202 378.771 1257
932.11401 442.237 1254
895.48999 471.51801 1237
896.901 471.51801 1237
899.72302 471.51801 1237
932.17798 471.51801 1237
909.711 424.91199 1241
887.96198 310.99301 1279
890.88 310.99301 1279
900.55798 431.61499 1244
901.97699 431.61499 1244
903.396 431.61499 1244
915.19202 509.57199 1220
886.45898 334.345 1296
887.60101 267.396 1266
893.37799 267.396 1266
915.40002 480.52499 1224
918.19202 480.52499 1224
919.58899 480.52499 1224
920.98499 480.52499 1224
913.90399 525.73999 1222
901.21698 468.79599 1241
932.36102 468.79599 1241
916.58301 490.479 1235
885.49799 383.45999 1263
924.22998 327.672 1293
892.74597 403.78799 1259
908.54401 403.78799 1259
909.97998 403.78799 1259
880.05701 321.90799 1276
881.51202 321.90799 1276
882.96802 321.90799 1276
884.42297 321.90799 1276
946.38898 244.91 1324
947.89899 244.91 1324
902.08099 397.095 1256
892.09601 278.82101 1313
932.53497 278.82101 1313
887.70599 376.79999 1260
900.64203 376.79999 1260
892.48602 275.37201 1318
893.98999 275.37201 1318
887.82703 306.729 1298
894.87402 410.509 1262
916.46698 410.509 1262
913.25702 321.02499 1290
894.20898 390.42899 1253
908.97803 434.47101 1240
913.45599 445.104 1250
884.42297 313.17499 1276
890.24597 313.17499 1276
935.85303 478.32001 1240
916.24402 487.302 1227
902.875 265.25 1320
951.05798 265.25 1320
886.78802 294.534 1303
903.138 294.534 1303
881.34497 258.93301 1253
882.77502 258.93301 1253
960.50201 240.131 1331
902.771 426.909 1251
888.25702 388.177 1269
894.104 275.633 1305
894.92401 408.68399 1252
911.76398 500.23999 1221
924.41803 417.25699 1265
927.30402 417.25699 1265
905.65802 415.39001 1255
885.29797 329.854 1290
894.54102 272.207 1310
890.35699 394.89899 1272
895.979 477.89301 1228
914.18903 477.89301 1228
922.59399 477.89301 1228
904.22699 374.81601 1263
909.32599 503.517 1229
910.72803 503.517 1229
886.91101 322.27899 1301
888.50403 263.875 1284
914.797 447.944 1246
916.21899 447.944 1246
917.64001 447.944 1246
920.48297 447.944 1246
920.73499 246.61501 1309
930.68402 433.655 1254
920.73798 422.12299 1258
922.17297 422.12299 1258
923.60797 422.12299 1258
909.32599 468.46899 1229
910.72803 468.46899 1229
912.13 468.46899 1229
916.336 468.46899 1229
883.85699 264.103 1271
895.513 284.67801 1292
896.987 284.67801 1292
898.461 284.67801 1292
899.935 284.67801 1292
889.96802 272.66299 1284
898.09302 287.92401 1300
905.85699 459.02899 1230
910.06598 459.02899 1230
911.133 323.215 1287
940.45502 345.371 1293
946.354 345.371 1293
950.77899 345.371 1293
892.89801 281.45099 1284
888.24103 338.68301 1290
905.89899 338.68301 1290
907.37097 338.68301 1290
899.20502 368.177 1260
897.651 291.18799 1308
913.27698 450.75601 1242
890.55499 401.871 1262
912.14899 401.871 1262
894.82202 372.81799 1266
912.151 372.81799 1266
884.888 388.49899 1256
931.56403 428.883 1261
893.53302 269.05899 1302
919.47998 490.892 1222
902.32397 332.02301 1287
903.79199 332.02301 1287
905.26099 332.02301 1287
906.729 332.02301 1287
908.19702 332.02301 1287
909.66498 332.02301 1287
911.133 332.02301 1287
891.229 408.599 1265
910.49103 423.10101 1244
903.84601 465.77399 1233
925.54797 454.72101 1249
891.68402 308.97501 1295
901.70801 475.23401 1232
911.54602 475.23401 1232
925.599 475.23401 1232
882.32898 303.452 1303
891.43298 307.815 1284
895.82703 307.815 1284
901.30701 429.811 1247
883.72302 293.521 1292
888.78998 269.508 1276
886.77002 347.51199 1290
888.24103 347.51199 1290
925.02899 347.51199 1290
926.5 347.51199 1290
930.91498 347.51199 1290
932.38599 347.51199 1290
935.33002 347.51199 1290
915.02301 377.487 1272
902.78601 366.172 1263
908.54901 366.172 1263
896.58899 287.80701 1313
931.03699 287.80701 1313
903.79199 340.832 1287
906.729 340.832 1287
912.60101 340.832 1287
887.039 316.603 1284
914.27301 384.19501 1275
887.552 269.31299 1289
910.37097 526.703 1221
920.12 526.703 1221
921.164 457.526 1245
903.95697 463.052 1237
920.88898 463.052 1237
930.56702 436.54901 1250
904.04797 460.302 1241
900.22101 325.39099 1284
895.63599 406.79999 1255
897.06799 406.79999 1255
902.79401 406.79999 1255
904.22601 406.79999 1255
895.82703 334.17899 1284
899.91699 418.34698 1251
886.17499 349.64001 1287
916.047 481.52802 1223
918.83698 481.52802 1223
963.466 238.972 1333
885.19702 302.36401 1292
913.69202 500.936 1233
890.20697 317.83801 1295
913.84198 317.83801 1295
910.948 482.026 1235
912.35602 482.026 1235
915.17401 482.026 1235
891.64099 382.18301 1278
896.03497 281.173 1310
917.24799 491.48901 1234
885.65601 393.457 1249
889.92999 393.457 1249
903.505 425.07199 1254
889.112 358.44901 1287
918.47302 358.44901 1287
897.47198 373.436 1278
899.729 366.742 1275
904.08698 432.686 1243
891.95502 277.746 1315
941.45599 277.746 1315
924.37201 420.25201 1261
925.81 420.25201 1261
901.22699 264.14401 1322
902.73499 264.14401 1322
901.90503 469.83301 1240
933.02399 469.83301 1240
917.797 360.543 1284
917.64398 513.89502 1227
895.19501 345.08801 1281
896.65601 345.08801 1281
905.42401 345.08801 1281
906.88501 345.08801 1281
908.34601 345.08801 1281
921.75201 277.97 1302
893.73401 310.01801 1281
889.34998 353.85501 1281
909.80798 353.85501 1281
924.07397 262.51199 1299
925.164 406.67499 1268
930.94897 406.67499 1268
932.396 406.67499 1268
933.84198 406.67499 1268
935.289 406.67499 1268
896.65601 371.39001 1281
928.80402 371.39001 1281
886.42798 266.181 1281
907.69098 439.41599 1246
909.112 439.41599 1246
921.90399 439.41599 1246
887.75403 379.90201 1256
889.18597 379.90201 1256
890.61902 379.90201 1256
893.91101 358.01599 1275
895.36499 358.01599 1275
892.73297 312.37 1303
903.30402 355.94199 1278
892.56598 311.20599 1292
885.81 347.19501 1278
894.55701 347.19501 1278
896.01398 347.19501 1278
922.14203 245.496 1311
899.32098 267.65201 1317
948.89697 267.65201 1317
929.76501 274.565 1307
921.64099 247.368 1321
888.09399 349.289 1275
891.00201 349.289 1275
895.90601 271.12601 1312
939.30798 271.12601 1312
881.67102 295.78 1289
883.14099 295.78 1289
911.44098 504.711 1215
908.586 504.508 1228
891.05701 271.77899 1273
916.24402 478.90399 1227
921.84302 478.90399 1227
914.15002 446.173 1249
915.98499 488.84601 1238
891.35498 262.819 1286
885.19702 320.04901 1292
914.67297 320.04901 1292
894.90698 404.90302 1258
890.18298 320.95499 1278
883.39398 263.254 1260
889.14398 263.254 1260
890.58099 263.254 1260
885.81 312.20801 1278
891.64099 312.20801 1278
885.56598 377.93799 1259
897.05499 377.93799 1259
915.74103 411.62201 1261
902.04901 427.99399 1250
943.73798 261.047 1314
889.99298 271.40302 1299
878.26599 299.095 1297
898.979 299.095 1297
885.65997 247.339 1245
887.08002 247.339 1245
899.91699 409.785 1251
901.34399 409.785 1251
897.98901 286.88101 1302
935.61401 242.62 1328
937.12903 242.62 1328
949.24799 242.62 1328
950.763 242.62 1328
907.677 508.034 1223
904.93597 416.48901 1254
906.36603 416.48901 1254
906.52197 460.05701 1229
910.72803 460.05701 1229
915.48297 449.004 1245
916.90399 449.004 1245
918.72803 491.883 1221
920.12 491.883 1221
887.25201 335.564 1295
899.02399 290.138 1310
921.43903 290.138 1310
927.63098 267.98499 1304
902.81702 264.53299 1309
935.66699 264.53299 1309
919.65399 250.936 1316
920.80298 418.36899 1264
922.245 418.36899 1264
926.57098 418.36899 1264
908.23297 527.66302 1220
909.625 527.66302 1220
919.367 527.66302 1220
891.35498 280.422 1286
932.79999 434.73801 1253
885.19702 328.892 1292
902.77301 382.625 1265
893.64398 314.616 1300
906.659 457.33499 1233
912.28497 457.33499 1233
907.03003 254.353 1273
924.30701 423.22101 1257
900.97601 476.25201 1231
913.61401 476.25201 1231
903.11298 466.802 1232
904.51898 466.802 1232
917.16699 466.802 1232
918.57202 466.802 1232
891.64099 277.22 1278
889.11499 375.95901 1262
900.63202 375.95901 1262
903.51099 375.95901 1262
919.07898 252.843 1326
886.63898 314.384 1275
909.75897 424.17899 1243
912.59497 424.17899 1243
915.29797 482.52802 1222
916.69202 482.52802 1222
918.086 482.52802 1222
919.47998 482.52802 1222
888.14398 337.73499 1292
900.58398 430.888 1246
887.73199 396.29199 1258
937.89899 441.51001 1256
891.28802 402.991 1261
910.14001 501.936 1232
911.54602 501.936 1232
912.95099 501.936 1232
891.35498 306.827 1286
892.82202 306.827 1286
900.15601 306.827 1286
920.29401 461.34601 1240
892.91302 280.10501 1312
894.40997 280.10501 1312
930.328 280.10501 1312
915.48999 331.069 1289
895.45099 473.57401 1235
896.85999 473.57401 1235
929.26202 473.57401 1235
907.10797 369.32101 1259
916.505 492.49701 1233
885.61499 389.621 1255
897.06799 389.621 1255
891.80902 276.66599 1317
945.89203 276.66599 1317
919.362 409.71701 1264
883.13702 295.793 1302
905.987 483.043 1234
907.39502 483.043 1234
915.841 483.043 1234
907.48901 502.20099 1219
902.80402 301.35599 1294
929.41101 346.577 1292
930.88397 346.577 1292
932.35797 346.577 1292
924.65601 276.91 1304
902.07501 407.90601 1254
903.72699 339.89099 1289
905.19702 339.89099 1289
906.66699 339.89099 1289
908.138 339.89099 1289
915.48999 339.89099 1289
910.42499 324.431 1286
913.461 505.681 1214
914.84497 505.681 1214
916.22998 505.681 1214
911.40198 414.61801 1257
899.19202 367.32101 1262
900.63202 367.32101 1262
912.47302 299.104 1310
890.73901 273.914 1283
912.10199 385.34698 1274
893.85797 273.492 1309
897.27197 270.04001 1314
901.25201 468.134 1243
902.66998 468.134 1243
904.77698 433.755 1242
909.20502 444.388 1252
910.633 444.388 1252
912.06201 444.388 1252
932.60101 465.37299 1247
955.229 241.468 1330
906.44598 505.49701 1227
907.84601 505.49701 1227
898.883 289.18399 1299
900.15601 333.23199 1286
892.61499 311.35999 1305
918.53998 247.918 1308
920.76398 421.35599 1260
915.49701 479.91199 1226
913.59399 401.06601 1264
904.216 365.30899 1265
905.659 365.30899 1265
907.10199 365.30899 1265
895.12903 309.039 1283
904.55701 342.034 1286
884.862 387.68201 1258
894.21002 261.758 1288
883.42102 317.82001 1283
900.98297 317.82001 1283
884.51202 294.76599 1291
890.94299 383.341 1277
912.51001 509.013 1222
891.19299 407.79901 1267
922.98901 407.79901 1267
924.43402 407.79901 1267
933.10602 407.79901 1267
918.39099 496.104 1228
889.54797 270.75101 1275
886.95398 350.836 1286
913.05103 528.62097 1219
914.44202 528.62097 1219
917.22302 528.62097 1219
881.95801 326.60101 1283
896.59302 326.60101 1283
919.367 492.87201 1220
920.758 492.87201 1220
914.84198 447.23901 1248
886.34802 335.38199 1283
887.81201 335.38199 1283
893.66602 335.38199 1283
900.47601 367.90799 1274
908.68298 263.44199 1311
910.17798 263.44199 1311
927.08899 325.72601 1297
899.52002 344.16299 1283
905.37402 344.16299 1283
888.42102 359.63699 1286
889.888 359.63699 1286
912.60797 525.20502 1224
915.40002 525.20502 1224
916.79602 525.20502 1224
918.19202 525.20502 1224
919.58899 525.20502 1224
920.98499 525.20502 1224
922.38098 525.20502 1224
889.27502 352.944 1283
912.69202 352.944 1283
895.90601 289.08499 1312
897.40302 289.08499 1312
895.31299 365.86099 1277
916.336 486.694 1229
905.784 461.08401 1228
907.185 461.08401 1228
908.586 461.08401 1228
918.54602 361.72601 1283
897.41699 372.561 1280
909.09698 355.039 1280
898.883 298.07501 1299
891.57599 363.79999 1280
888.04303 319.06799 1294
914.61298 319.06799 1294
890.30298 359.18799 1274
891.75702 359.18799 1274
928.79102 370.50699 1283
894.49597 346.27899 1280
895.95697 346.27899 1280
906.177 346.27899 1280
913.37598 422.35999 1246
902.59698 357.121 1277
893.229 477.26901 1230
894.63202 477.26901 1230
