# .PCD v0.7 - Point Cloud Data file format
VERSION 0.7
FIELDS x y z
SIZE 4 4 4
TYPE F F F
COUNT 1 1 1
WIDTH 2013
HEIGHT 1
VIEWPOINT 0 0 0 1 0 0 0
POINTS 2013
DATA ascii
1179.27 -536.72699 1629
1090.64 -655.26898 1661
1094.4301 -655.26898 1661
1170.22 -655.26898 1661
1204.33 -655.26898 1661
1218.47 -670.25 1670
1195.04 -607.96002 1656
1175.65 -676.24597 1666
1093.27 -649.25 1665
1097.0699 -649.25 1665
1174.9399 -649.25 1665
1268.84 -739.62097 1707
1072.45 -664.21698 1674
1145.01 -664.21698 1674
1236.67 -664.21698 1674
1199.25 -597.79199 1654
1225.67 -597.79199 1654
1229.4399 -597.79199 1654
1183.09 -472.12299 1599
1218.67 -586.04602 1637
1178.51 -682.20599 1662
1182.3 -682.20599 1662
1129.55 -564.828 1619
1046.4 -643.19397 1669
1055.92 -643.19397 1669
1225.36 -643.19397 1669
1252.01 -643.19397 1669
1187.88 -558.81799 1623
1210.25 -538.30902 1606
1259.75 -717.19598 1700
1263.63 -717.19598 1700
1165.23 -648.06403 1638
1172.7 -648.06403 1638
1161.75 -579.99103 1641
1208.63 -578.39899 1626
1197.76 -680.99597 1673
1137.23 -572.38397 1630
1139.09 -572.38397 1630
1140.9399 -572.38397 1630
1185.5699 -572.38397 1630
1195.85 -515.89801 1599
1196.2 -651.01398 1655
1188.02 -718.33502 1689
1197.76 -519.341 1604
1238.88 -674.97198 1677
1240.8 -674.97198 1677
1187.28 -686.98297 1669
1204.65 -534.80603 1601
1196.5 -521.88501 1595
1186.97 -712.31097 1693
1225.6 -712.31097 1693
1231.39 -712.31097 1693
1135.59 -638.98499 1663
1247.51 -638.98499 1663
1231.38 -596.10999 1639
1153.14 -645.03601 1621
1220.17 -566.33301 1634
1167.4 -527.112 1628
1171.11 -527.112 1628
1182.26 -527.112 1628
1204.54 -527.112 1628
1170.71 -656.974 1651
1115.79 -691.776 1676
1119.61 -691.776 1676
1182.7 -691.776 1676
1190.35 -691.776 1676
1181.6899 -685.76099 1680
1197.01 -665.94299 1664
1210.3 -665.94299 1664
1152.71 -523.64203 1623
1098.02 -668.91199 1681
1136.37 -668.91199 1681
1138.29 -668.91199 1681
1142.13 -668.91199 1681
1172.8101 -668.91199 1681
1230.33 -659.93298 1668
1154.8 -516.73499 1613
1200.8 -516.73499 1613
1198 -540.75702 1597
1154.6899 -520.18298 1618
1156.54 -520.18298 1618
1158.38 -520.18298 1618
1162.08 -520.18298 1618
1196.64 -640.79901 1653
1128.13 -696.58502 1683
1170.21 -573.89801 1645
1192.73 -573.89801 1645
1132.55 -555.25 1618
1204.53 -555.25 1618
1208.74 -475.42899 1604
1045.14 -632.91602 1667
1115.5 -632.91602 1667
1117.4 -632.91602 1667
1121.21 -632.91602 1667
1123.11 -632.91602 1667
1145.9301 -632.91602 1667
1138.6 -701.40997 1690
1177.09 -671.91699 1660
1178.99 -671.91699 1660
1237.45 -728.60199 1704
1270.49 -728.60199 1704
1088.33 -653.88702 1672
1218.02 -653.88702 1672
1245.98 -679.71002 1684
1247.9 -679.71002 1684
1050.86 -628.74298 1661
1054.64 -628.74298 1661
1066.01 -628.74298 1661
1191.28 -616.30701 1643
1234.38 -616.30701 1643
1161.49 -560.245 1638
1232.49 -560.245 1638
1237.39 -610.29199 1647
1179.15 -636.59497 1647
1166 -583.98999 1647
1237.39 -583.98999 1647
1210.67 -620.43903 1649
1185.09 -499.172 1575
1192.12 -622.28497 1639
1133.74 -568.77502 1625
1135.59 -568.77502 1625
1204.91 -574.771 1621
1159.51 -510.63901 1617
1126.48 -576.35699 1636
1128.35 -576.35699 1636
1193.4399 -551.69501 1613
1197.12 -551.69501 1613
1180.47 -632.40399 1641
1171.55 -714.492 1671
1203.8 -514.06799 1622
1110.55 -670.651 1671
1169.21 -565.552 1595
1223.6899 -618.52399 1659
1233.16 -618.52399 1659
1176.28 -642.54498 1643
1165.24 -655.664 1662
1206.95 -655.664 1662
1180.1 -723.67297 1697
1184.98 -557.66803 1609
1090.13 -649.64001 1666
1092.03 -649.64001 1666
1099.63 -649.64001 1666
1168.04 -649.64001 1666
1171.84 -649.64001 1666
1177.55 -649.64001 1666
1209.85 -649.64001 1666
1071.1801 -664.61298 1675
1139.96 -664.61298 1675
1168.62 -664.61298 1675
1186.8101 -478.746 1609
1181.12 -682.61603 1663
1129.24 -570.28302 1640
1168.52 -570.28302 1640
1192.84 -570.28302 1640
1233.5601 -608.32703 1657
1171.41 -453.599 1598
1173.23 -453.599 1598
1175.05 -453.599 1598
1178.7 -453.599 1598
1200.89 -478.51901 1596
1152.36 -556.672 1633
1160.95 -709.59998 1664
1225.76 -592.42798 1634
1163.26 -537.05603 1630
1165.12 -537.05603 1630
1166.98 -537.05603 1630
1174.41 -537.05603 1630
1226.89 -586.40399 1638
1058.45 -643.58002 1670
1167.04 -643.58002 1670
1191.1899 -563.60498 1605
1270.53 -724.75201 1686
1173.97 -463.00299 1599
1177.61 -463.00299 1599
1174.66 -687.39398 1670
1184.1801 -687.39398 1670
1179.95 -712.73199 1694
1228.25 -712.73199 1694
1230.1899 -712.73199 1694
1239.85 -712.73199 1694
1246.11 -658.53998 1679
1128.4 -565.177 1620
1115.21 -675.37402 1678
1226.22 -675.37402 1678
1230.05 -675.37402 1678
1231.97 -675.37402 1678
1233.88 -675.37402 1678
1243.45 -675.37402 1678
1174.52 -533.55499 1625
1178.99 -645.40698 1660
1180.88 -645.40698 1660
1190.55 -580.34399 1642
1201.1899 -571.15503 1616
1112.63 -692.18903 1677
1114.54 -692.18903 1677
1185.3199 -692.18903 1677
1187.23 -692.18903 1677
1134.2 -572.73499 1631
1136.0601 -572.73499 1631
1145.37 -572.73499 1631
1196.6 -472.418 1600
1219.79 -639.36902 1664
1088.5 -657.37201 1652
1092.27 -657.37201 1652
1163.88 -657.37201 1652
1187.88 -584.737 1623
1113.36 -686.16901 1681
1191.53 -544.617 1603
1095.17 -666.34399 1665
1193.9301 -666.34399 1665
1118.0601 -701.82501 1691
1141.21 -701.82501 1691
1143.13 -701.82501 1691
1154.3199 -669.31 1682
1199.1801 -481.84399 1601
1090.1899 -660.32898 1669
1205.11 -729.02899 1705
1236.23 -729.02899 1705
1181.59 -672.32202 1661
1175.4301 -569.50598 1601
1209.72 -635.17297 1658
1211.61 -635.17297 1658
1127.66 -566.67999 1635
1131.48 -690.95203 1688
1185.39 -690.95203 1688
1235.1801 -680.11401 1685
1237.11 -680.11401 1685
1250.5601 -680.11401 1685
1119.98 -633.29498 1668
1148.52 -633.29498 1668
1173.77 -647.16498 1650
1178.35 -560.02399 1600
1180.1801 -560.02399 1600
1161.23 -654.33698 1635
1199.8199 -531.64801 1597
1191.5699 -574.24701 1646
1232.88 -574.24701 1646
1125.86 -555.59399 1619
1127.7 -555.59399 1619
1129.55 -555.59399 1619
1131.4 -555.59399 1619
1183.87 -561.59003 1615
1049.59 -629.12201 1662
1053.38 -629.12201 1662
1231 -600.534 1646
1190.13 -616.68201 1644
1151.84 -517.05603 1614
1153.6801 -517.05603 1614
1157.36 -517.05603 1614
1266.9 -730.12299 1694
1151.71 -520.50403 1619
1153.5601 -520.50403 1619
1201.58 -520.50403 1619
1198.5 -481.55499 1588
1213.29 -620.815 1650
1218.9399 -620.815 1650
1243.78 -610.66302 1648
1194.0699 -618.52301 1634
1190.97 -622.66498 1640
1200.33 -622.66498 1640
1271.83 -724.099 1698
1125.35 -584.34399 1648
1194.9 -584.34399 1648
1195.9301 -466.28 1604
1197.04 -671.052 1672
1221.84 -671.052 1672
1177.26 -567.54999 1611
1235.1 -614.77301 1654
1179.3101 -632.789 1642
1090.0601 -656.05798 1663
1138.14 -569.125 1626
1186.37 -569.125 1626
1226.47 -594.46399 1650
1147.4399 -507.53601 1613
1208.16 -507.53601 1613
1194.03 -604.60699 1652
1197.8 -604.60699 1652
1201.5699 -604.60699 1652
1203.46 -604.60699 1652
1205.34 -604.60699 1652
1233.61 -604.60699 1652
1086.98 -650.03003 1667
1088.88 -650.03003 1667
1093.12 -662.04999 1659
1195.3101 -662.04999 1659
1222.54 -618.89697 1660
1226.33 -618.89697 1660
1228.22 -618.89697 1660
1230.11 -618.89697 1660
1232.01 -618.89697 1660
1188.79 -576.70898 1637
1148.29 -665.01001 1676
1176.97 -665.01001 1676
1178.88 -665.01001 1676
1208.22 -510.95401 1618
1183.88 -558.01501 1610
1194.9 -558.01501 1610
1187.88 -514.38501 1623
1189.73 -514.38501 1623
1191.59 -514.38501 1623
1193.4399 -514.38501 1623
1195.29 -514.38501 1623
1200.84 -514.38501 1623
1202.6899 -514.38501 1623
1225.11 -713.15302 1695
1201.1 -681.81 1675
1203.01 -681.81 1675
1186.8 -687.80603 1671
1190.61 -687.80603 1671
1045.75 -643.96503 1671
1060.99 -643.96503 1671
1085.77 -643.96503 1671
1228.37 -592.78998 1635
1230.24 -592.78998 1635
1232.1 -592.78998 1635
1179.0699 -675.77698 1679
1177.8 -645.79498 1661
1204.33 -645.79498 1661
1218.54 -501.41599 1617
1194.16 -548.49103 1609
1162.11 -537.38599 1631
1176.99 -537.38599 1631
1179.1 -563.95599 1606
1266.15 -729.45697 1706
1270.04 -729.45697 1706
1131.39 -697.41302 1685
1047.6899 -639.75403 1665
1132.8 -565.52502 1621
1134.65 -565.52502 1621
1184.5699 -565.52502 1621
1181.26 -453.883 1599
1213.65 -666.74402 1666
1091.05 -657.77002 1653
1185.33 -657.77002 1653
1173.84 -709.40503 1677
1146.71 -559.50598 1625
1211.59 -559.50598 1625
1177.1 -533.88397 1626
1225.3199 -533.88397 1626
1165.04 -580.69702 1643
1232.51 -580.69702 1643
1174.72 -672.72601 1662
1176.61 -672.72601 1662
1116.74 -691.362 1689
1129.3101 -573.086 1632
1131.17 -573.086 1632
1133.04 -573.086 1632
1144.21 -573.086 1632
1190.47 -585.09698 1624
1171.05 -463.29199 1600
1176.52 -463.29199 1600
1183.83 -463.29199 1600
1185.65 -463.29199 1600
1172.59 -647.55701 1651
1191.4301 -647.55701 1651
1167.92 -654.66901 1674
1209.17 -529.47803 1607
1237.76 -590.78699 1645
1239.64 -590.78699 1645
1241.51 -590.78699 1645
1235.76 -724.526 1699
1237.6899 -724.526 1699
1182.74 -472.71301 1601
1193.7 -472.71301 1601
1195.52 -472.71301 1601
1199.1801 -472.71301 1601
1241.9 -631.37201 1653
1243.78 -631.37201 1653
1161.9399 -567.026 1636
1191.8 -567.026 1636
1182.65 -493.061 1567
1048.33 -629.5 1663
1234.01 -617.05701 1645
1169.75 -653.50403 1647
1184.78 -653.50403 1647
1215.91 -621.19098 1651
1230.98 -621.19098 1651
1232.86 -621.19098 1651
1174.86 -671.453 1673
1176.77 -671.453 1673
1190.38 -541.43402 1599
1201.33 -541.43402 1599
1188.1 -611.03302 1649
1237.01 -611.03302 1649
1206.16 -491.58899 1603
1100.21 -656.453 1664
1210.3 -656.453 1664
1212.2 -656.453 1664
1175.84 -643.328 1645
1185.22 -643.328 1645
1211.97 -547.35901 1633
1213.83 -547.35901 1633
1178.74 -683.43701 1665
1099.46 -662.44897 1660
1101.35 -662.44897 1660
1197.92 -662.44897 1660
1199.8199 -662.44897 1660
1201.71 -662.44897 1660
1203.6 -662.44897 1660
1205.5 -662.44897 1660
1191.15 -589.11798 1630
1150.42 -524.28699 1625
1152.27 -524.28699 1625
1168.96 -524.28699 1625
1264.34 -725.612 1688
1150.71 -517.37598 1615
1159.92 -517.37598 1615
1110.72 -665.40698 1677
1139.41 -665.40698 1677
1175.76 -665.40698 1677
1191.25 -525.02899 1588
1102.85 -650.41998 1668
1167.54 -650.41998 1668
1182.83 -496.42801 1572
1200.41 -604.97302 1653
1132.98 -560.92902 1640
1164.78 -560.92902 1640
1198.96 -594.82501 1651
1219.49 -619.26898 1661
1221.38 -619.26898 1661
1131.42 -569.47498 1627
1133.28 -569.47498 1627
1148.12 -569.47498 1627
1221.97 -713.573 1696
1223.9 -713.573 1696
1267.8 -735.94501 1703
1269.75 -735.94501 1703
1195.62 -481.858 1589
1171.03 -450.92801 1595
1172.85 -450.92801 1595
1174.67 -450.92801 1595
1176.49 -450.92801 1595
1125.99 -577.06201 1638
1111.96 -682.21698 1676
1117.7 -682.21698 1676
1183.6899 -688.21802 1672
1179.05 -556.80402 1596
1176.72 -649.25098 1641
1154.67 -563.43298 1631
1201.84 -485.483 1607
1184.6 -476.021 1606
1184.96 -581.44897 1619
1186.8 -581.44897 1619
1188.65 -581.44897 1619
1191.24 -552.37903 1615
1196.77 -552.37903 1615
1146.3199 -507.85001 1614
1231.26 -609.06201 1659
1233.16 -609.06201 1659
1177.86 -676.17902 1680
1229.6 -676.17902 1680
1107.4 -644.34998 1672
1123.53 -693.01398 1679
1190.5601 -693.01398 1679
1194.4 -693.01398 1679
1196.3101 -693.01398 1679
1200.26 -652.19397 1658
1170.9301 -646.18402 1662
1172.8199 -646.18402 1662
1176.61 -646.18402 1662
1225.39 -593.15302 1636
1212.6 -686.98602 1683
1146.17 -511.26999 1619
1146.42 -702.65503 1693
1172.55 -667.14398 1667
1174.45 -667.14398 1667
1197.27 -667.14398 1667
1216.28 -667.14398 1667
1170.95 -658.16803 1654
1198.53 -557.354 1635
1046.42 -640.138 1666
1050.22 -640.138 1666
1088.23 -640.138 1666
1185.15 -640.138 1666
1219.5699 -691.771 1690
1167.74 -661.12 1671
1169.64 -661.12 1671
1171.55 -661.12 1671
1188.55 -503.19501 1582
1191.22 -548.83197 1610
1160.96 -537.71503 1632
1127.9399 -565.87402 1622
1271.39 -724.95203 1700
1124.49 -581.05103 1644
1228.01 -597.20099 1642
1214.96 -635.93903 1660
1184.75 -609.203 1634
1088.37 -655.06 1675
1222.12 -655.06 1675
1224.03 -655.06 1675
1190.5 -506.59601 1587
1200.5699 -479.11899 1598
1166.6801 -534.21198 1627
1168.54 -534.21198 1627
1170.4 -534.21198 1627
1172.25 -534.21198 1627
1174.11 -534.21198 1627
1208.6899 -631.75299 1654
1246.42 -631.75299 1654
1192.59 -637.75403 1650
1194.47 -637.75403 1650
1237.01 -607.30499 1644
1238.88 -607.30499 1644
1194.85 -545.297 1605
1176.5601 -677.86902 1670
1099.1801 -671.85498 1674
1173.65 -671.85498 1674
1225.21 -671.85498 1674
1230.9399 -671.85498 1674
1069.84 -629.87903 1664
1132.48 -629.87903 1664
1242.5699 -629.87903 1664
1133.51 -553.78998 1630
1135.37 -553.78998 1630
1139.09 -553.78998 1630
1198.58 -553.78998 1630
1201.33 -488.53799 1599
1198.66 -627.58197 1648
1200.54 -627.58197 1648
1204.3 -627.58197 1648
1241.9 -627.58197 1648
1243.78 -627.58197 1648
1188.91 -720.03601 1693
1060.3101 -625.716 1658
1187.05 -683.84698 1666
1218.53 -621.56702 1652
1203.66 -623.42401 1642
1089.47 -656.84698 1665
1098.97 -656.84698 1665
1214.8199 -656.84698 1665
1187.13 -560.724 1602
1169.96 -463.582 1601
1173.61 -463.582 1601
1178.87 -633.56 1644
1188.25 -633.56 1644
1168.8 -665.80402 1678
1241.54 -665.80402 1678
1191.71 -713.99402 1697
1200.5699 -522.867 1598
1136.49 -556.28003 1621
1191.97 -556.28003 1621
1203.78 -562.28497 1617
1086.38 -650.81 1669
1213.9399 -650.81 1669
1179.58 -682.62402 1677
1178.6801 -688.62903 1673
1180.59 -688.62903 1673
1219.05 -583.46503 1635
1220.91 -583.46503 1635
1170 -585.05402 1650
1190.71 -585.05402 1650
1194.47 -585.05402 1650
1241.52 -585.05402 1650
1181.01 -709.12097 1690
1197.5699 -528.83099 1594
1176.88 -568.25403 1613
1200.8 -568.25403 1613
1233.21 -605.33899 1654
1103.78 -676.58197 1681
1147.88 -676.58197 1681
1149.7 -514.25702 1611
1151.54 -514.25702 1611
1201.15 -514.25702 1611
1112.7 -693.427 1680
1199.1899 -561.271 1641
1184.75 -525.35999 1589
1141.4 -569.82501 1628
1146.97 -569.82501 1628
1150.6899 -569.82501 1628
1147.42 -524.60999 1626
1149.27 -524.60999 1626
1203.0601 -524.60999 1626
1151.29 -521.14697 1621
1122.9399 -577.414 1639
1124.8101 -577.414 1639
1253.1 -644.73602 1673
1134.66 -698.23999 1687
1166.92 -652.58801 1659
1168.8101 -652.58801 1659
1167.84 -646.573 1663
1175.4301 -646.573 1663
1207.75 -504.755 1610
1211.1801 -609.42902 1660
1213.0699 -609.42902 1660
1218.75 -609.42902 1660
1230.11 -609.42902 1660
1203.04 -552.72101 1616
1129.3101 -563.77802 1632
1218.67 -563.77802 1632
1267.21 -731.41602 1697
1188.65 -658.56598 1655
1190.54 -658.56598 1655
1183.51 -558.70801 1612
1198.22 -558.70801 1612
1090.24 -661.51599 1672
1139.83 -661.51599 1672
1235.1899 -661.51599 1672
1179.05 -451.20999 1596
1045.14 -640.52197 1667
1086.98 -640.52197 1667
1090.78 -640.52197 1667
1092.6801 -640.52197 1667
1094.58 -640.52197 1667
1096.49 -640.52197 1667
1130.71 -640.52197 1667
1132.62 -640.52197 1667
1248.61 -640.52197 1667
1150.71 -508.16501 1615
1200.34 -725.37903 1701
1231.39 -725.37903 1701
1258.5601 -681.32501 1688
1127.55 -571.32599 1643
1193.15 -571.32599 1643
1195.4399 -587.47803 1641
1231.01 -587.47803 1641
1180.88 -679.49103 1660
1201.4301 -642.34998 1657
1132.08 -557.69501 1636
1156.34 -557.69501 1636
1158.21 -557.69501 1636
1170.24 -648.34198 1653
1172.13 -648.34198 1653
1130.4301 -636.32202 1661
1132.33 -636.32202 1661
1189.17 -636.32202 1661
1188.38 -603.58899 1639
1190.13 -549.17297 1611
1193.8 -549.17297 1611
1199.3101 -549.17297 1611
1210.1 -566.22302 1623
1198.77 -597.565 1643
1183.61 -609.57599 1635
1192.52 -678.27502 1671
1190.85 -581.40399 1645
1169.5601 -563.026 1593
1176.36 -638.14099 1651
1180.13 -638.14099 1651
1188.65 -632.13501 1655
1190.54 -632.13501 1655
1211.3 -632.13501 1655
1203.42 -537.12598 1619
1265.4 -736.80902 1705
1267.35 -736.80902 1705
1176.35 -684.258 1667
1178.25 -684.258 1667
1128.83 -573.789 1634
1156.79 -573.789 1634
1184.17 -470.004 1598
1187.1 -607.67499 1645
1235.89 -607.67499 1645
1047.6899 -630.25702 1665
1138.85 -630.25702 1665
1140.75 -630.25702 1665
1088.23 -657.242 1666
1217.45 -657.242 1666
1203.15 -627.96301 1649
1206.91 -627.96301 1649
1093.2 -663.24701 1662
1208.84 -663.24701 1662
1175.8101 -570.573 1604
1197.9301 -591.505 1647
1057.16 -626.09399 1659
1062.84 -626.09399 1659
1175.39 -644.10999 1647
1183.87 -578.16998 1615
1226.8101 -621.94397 1653
1228.7 -621.94397 1653
1230.58 -621.94397 1653
1077.5699 -666.20099 1679
1094.8 -666.20099 1679
1165.54 -534.53998 1628
1185.22 -633.94501 1645
1183.2 -689.04102 1674
1191.9301 -545.63599 1606
1199.26 -545.63599 1606
1201.09 -545.63599 1606
1202.92 -545.63599 1606
1208.42 -545.63599 1606
1115.21 -683.03101 1678
1207.08 -683.03101 1678
1137.92 -554.13 1631
1141.64 -554.13 1631
1143.51 -554.13 1631
1145.37 -554.13 1631
1236.63 -611.77399 1651
1231.37 -601.62799 1649
1165.23 -567.71899 1638
1193.1801 -510.328 1593
1166.46 -660.216 1645
1180.9 -629.763 1639
1191.98 -615.888 1657
1233.5601 -615.888 1657
1235.45 -615.888 1657
1174.03 -710.67401 1680
1146.64 -676.98401 1682
1196.33 -589.841 1632
1195.11 -513.75299 1598
1128.85 -562.633 1618
1130.7 -562.633 1618
1184.22 -562.633 1618
1215.26 -620.01501 1663
1217.16 -620.01501 1663
1219.0601 -620.01501 1663
1116.08 -698.65399 1688
1126.09 -556.62299 1622
1139.05 -556.62299 1622
1209.35 -556.62299 1622
1217.9301 -583.82202 1636
1190.04 -542.11102 1601
1193.7 -542.11102 1601
1195.52 -542.11102 1601
1199.1801 -542.11102 1601
1198.1 -507.729 1602
1246.04 -585.40802 1651
1198.92 -520.63599 1608
1203.9 -532.64697 1600
1251.9399 -645.12097 1674
1198.53 -595.54498 1653
1165.73 -652.98102 1660
1165.2 -463.871 1602
1188.96 -463.871 1602
1192.61 -463.871 1602
1092.61 -646.96198 1664
1094.51 -646.96198 1664
1170.4399 -646.96198 1664
1208.4 -646.96198 1664
1172.05 -667.94397 1669
1219.65 -667.94397 1669
1130.95 -570.17499 1629
1216.4301 -570.17499 1629
1234.05 -725.80499 1702
1236 -725.80499 1702
1174.9399 -673.94098 1665
1182.39 -473.30399 1603
1189.1 -577.76599 1640
1172.25 -524.93201 1627
1148.5699 -514.57599 1612
1154.09 -514.57599 1612
1155.9301 -514.57599 1612
1142.42 -661.91101 1673
1184.17 -557.50098 1598
1150.29 -518.01703 1617
1166.8 -521.46899 1622
1201.95 -521.46899 1622
1053.38 -640.90601 1668
1055.28 -640.90601 1668
1057.1899 -640.90601 1668
1099.05 -640.90601 1668
1127.59 -640.90601 1668
1129.49 -640.90601 1668
1224.62 -640.90601 1668
1191.48 -564.12402 1633
1124.47 -553.06299 1617
1179.7 -679.90002 1661
1187.9301 -497.06 1574
1178.96 -664.90997 1652
1204.04 -642.73798 1658
1201.21 -547.03497 1621
1167.1801 -648.73401 1654
1169.0601 -648.73401 1654
1195.48 -648.73401 1654
1181.85 -605.85199 1630
1227.41 -655.84198 1677
1229.3199 -655.84198 1677
1231.23 -655.84198 1677
1240.8 -655.84198 1677
1264.2 -737.24103 1706
1126.36 -571.67401 1644
1229.51 -571.67401 1644
1129.22 -636.70502 1662
1246.76 -636.70502 1662
1267.4399 -732.87903 1687
1144.47 -672.65802 1676
1175.15 -684.66803 1668
1195.99 -565.01001 1609
1245.45 -714.836 1699
1170.6801 -451.49301 1597
1164.23 -511.90201 1621
1166.08 -511.90201 1621
1186.42 -511.90201 1621
1188.27 -511.90201 1621
1190.12 -511.90201 1621
1208.61 -511.90201 1621
1178.96 -638.52698 1652
1127.48 -566.57202 1624
1138.6 -566.57202 1624
1184.24 -476.61401 1608
1196.29 -663.646 1663
1211.47 -663.646 1663
1182.66 -611.78497 1626
1166.84 -657.63599 1667
1220.09 -657.63599 1667
1168.48 -563.37903 1594
1172.11 -563.37903 1594
1177.5699 -563.37903 1594
1044.52 -630.63599 1666
1046.42 -630.63599 1666
1073.02 -630.63599 1666
1131.9399 -630.63599 1666
1143.34 -630.63599 1666
1238.36 -630.63599 1666
1197.21 -608.04401 1646
1184.34 -709.96002 1692
1234.52 -709.96002 1692
1218.87 -498.95401 1615
1072.46 -666.59698 1680
1135.7 -666.59698 1680
1139.53 -666.59698 1680
1152.95 -666.59698 1680
1190.75 -615.90399 1632
1054.01 -626.47101 1660
1055.9 -626.47101 1660
1128.4 -560.539 1628
1209.72 -683.43799 1679
1200.54 -618.18201 1648
1202.42 -618.18201 1648
1234.38 -618.18201 1648
1189.74 -555.487 1608
1187.8199 -634.33099 1646
1178.28 -669.62 1659
1198.86 -620.03699 1638
1127.46 -694.25201 1682
1178.7 -460.89001 1598
1180.52 -460.89001 1598
1199.0699 -485.80099 1596
1186.45 -578.52802 1616
1172.8101 -711.09698 1681
1169.04 -660.617 1646
1235.49 -612.14502 1652
1215.85 -539.98401 1611
1203.4399 -699.06799 1689
1076.29 -677.38702 1683
1151.17 -677.38702 1683
1178.04 -677.38702 1683
1196.8199 -501.242 1593
1160.6899 -534.86902 1629
1162.54 -534.86902 1629
1164.4 -534.86902 1629
1180.75 -650.43799 1644
1179.3101 -640.28101 1642
1181.1899 -640.28101 1642
1147.9301 -554.46997 1632
1216.6801 -688.21002 1686
1218.87 -533.95599 1615
1186.73 -470.29901 1599
1188.5601 -470.29901 1599
1190.38 -470.29901 1599
1228.95 -726.23199 1703
1230.89 -726.23199 1703
1271.6899 -726.23199 1703
1191.48 -590.20203 1633
1090.64 -653.37402 1661
1092.54 -653.37402 1661
1164.54 -653.37402 1661
1204.33 -653.37402 1661
1206.22 -653.37402 1661
1210.25 -536.47699 1606
1127.7 -562.98102 1619
1133.24 -562.98102 1619
1096.55 -668.34399 1670
1200.25 -479.71799 1600
1087.5699 -647.35101 1665
1091.37 -647.35101 1665
1097.0699 -647.35101 1665
1167.34 -647.35101 1665
1224.27 -584.17902 1637
1187.05 -674.34497 1666
1141.6 -556.966 1623
1191.59 -556.966 1623
1198.1 -542.45001 1602
1139.28 -662.30701 1674
1167.92 -662.30701 1674
1194.6801 -520.06598 1595
1210.48 -576.54401 1626
1178.51 -680.31 1662
1127.9301 -570.52502 1630
1129.79 -570.52502 1630
1144.66 -570.52502 1630
1187.4301 -570.52502 1630
1183.12 -494.005 1570
1044.49 -641.28998 1669
1059.72 -641.28998 1669
1086.38 -641.28998 1669
1101.61 -641.28998 1669
1103.51 -641.28998 1669
1183.47 -641.28998 1669
1185.38 -641.28998 1669
1248.2 -641.28998 1669
1178.35 -567.32501 1600
1182 -567.32501 1600
1147.5601 -511.465 1608
1200.75 -511.465 1608
1192.54 -538.935 1597
1194.36 -538.935 1597
1196.1801 -538.935 1597
1225.77 -594.24103 1639
1191.53 -464.16101 1603
1166.92 -643.125 1659
1183.09 -557.84998 1599
1237.71 -656.23297 1678
1243.45 -656.23297 1678
1245.36 -656.23297 1678
1195.76 -715.25598 1700
1222.91 -715.25598 1700
1180.72 -606.224 1631
1202.6801 -518.33698 1618
1127.01 -553.40503 1618
1191.61 -553.40503 1618
1128 -637.08801 1663
1135.59 -637.08801 1663
1219.0601 -637.08801 1663
1143.24 -673.05902 1677
1229.3199 -673.05902 1677
1238.88 -673.05902 1677
1240.8 -673.05902 1677
1170.71 -655.091 1651
1133.1801 -588.19397 1643
1187.95 -604.32501 1641
1191.7 -604.32501 1641
1214.1 -664.04498 1664
1233.3199 -710.38 1693
1237.1899 -710.38 1693
1117.7 -689.86401 1676
1119.61 -689.86401 1676
1180.2 -565.36102 1610
1243.01 -632.89899 1657
1112.7 -683.84497 1680
1174.9399 -644.89203 1649
1138.29 -666.99402 1681
1177.09 -670.02301 1660
1180.88 -670.02301 1660
1115.5 -631.01398 1667
1117.4 -631.01398 1667
1130.71 -631.01398 1667
1145.9301 -631.01398 1667
1147.83 -631.01398 1667
1161.49 -558.37701 1638
1130.05 -694.66498 1683
1195.26 -586.53802 1628
1146.6 -508.79401 1617
1153.98 -508.79401 1617
1180.87 -572.922 1621
1235.51 -608.414 1647
1138.6 -699.48199 1690
1140.53 -699.48199 1690
1202.64 -549.85498 1613
1050.86 -626.84802 1661
1052.75 -626.84802 1661
1233.25 -618.55701 1649
1168.4399 -651.97998 1672
1224.52 -622.69598 1655
1168.8 -717.48499 1678
1170.71 -717.48499 1678
1160.0699 -574.49103 1636
1188.0699 -574.49103 1636
1225.39 -574.49103 1636
1078.85 -677.789 1684
1146.45 -512.21802 1622
1192.7 -512.21802 1622
1194.55 -512.21802 1622
1190.42 -560.88397 1629
1202.24 -486.39001 1610
1184.98 -555.83301 1609
1186.8101 -555.83301 1609
1188.65 -555.83301 1609
1115.41 -688.61902 1687
1184.6899 -688.61902 1687
1225.79 -726.65802 1704
1227.73 -726.65802 1704
1180.9399 -571.284 1606
1178.16 -640.67102 1643
1202.71 -476.698 1596
1233.16 -616.63098 1659
1095.09 -653.76801 1662
1171.55 -712.586 1671
1223.01 -668.745 1671
1191.58 -546.31598 1608
1198.92 -546.31598 1608
1168.52 -568.41199 1640
1192.84 -568.41199 1640
1090.5699 -659.75897 1658
1194.59 -659.75897 1658
1133.73 -554.81 1633
1150.5 -554.81 1633
1195.9301 -590.56403 1634
1225.76 -590.56403 1634
1159.54 -535.19702 1630
1099.63 -647.73901 1666
1211.75 -647.73901 1666
1172.14 -461.17899 1599
1177.61 -461.17899 1599
1210.88 -606.43701 1657
1233.5601 -606.43701 1657
1071.1801 -662.703 1675
1073.09 -662.703 1675
1138.05 -662.703 1675
1145.6899 -662.703 1675
1195.59 -721.737 1697
1267.02 -733.74799 1689
1184.91 -680.71899 1663
1160.95 -707.70203 1664
1164.74 -707.70203 1664
1180.11 -490.961 1566
1169.6801 -646.59003 1639
1126.55 -563.32898 1620
1135.79 -563.32898 1620
1174.52 -531.70203 1625
1182 -470.59299 1600
1183.83 -470.59299 1600
1194.78 -470.59299 1600
1144.15 -557.31 1624
1190.47 -557.31 1624
1204.88 -569.31097 1616
1043.21 -641.67499 1670
1062.26 -641.67499 1670
1064.17 -641.67499 1670
1127.03 -641.67499 1670
1138.46 -641.67499 1670
1172.75 -641.67499 1670
1174.66 -641.67499 1670
1176.5601 -641.67499 1670
1206.16 -542.789 1603
1177.47 -679.49298 1674
1206.58 -527.31702 1606
1169.52 -643.513 1660
1178.99 -643.513 1660
1180.88 -643.513 1660
1231.76 -578.47101 1642
1147.23 -570.875 1631
1186.03 -582.88501 1623
1191.8 -685.48901 1670
1191.79 -520.39203 1596
1193.61 -520.39203 1596
1197.25 -520.39203 1596
1180.91 -567.67902 1601
1231.97 -673.46002 1678
1235.79 -673.46002 1678
1126.78 -637.47101 1664
1204.6 -637.47101 1664
1206.5 -637.47101 1664
1246.36 -637.47101 1664
1090.39 -655.487 1652
1181.88 -710.79999 1694
1178.35 -558.19897 1600
1180.1801 -558.19897 1600
1189.64 -539.27301 1598
1191.46 -539.27301 1598
1198.75 -539.27301 1598
1116.45 -690.276 1677
1196.8 -690.276 1677
1170.29 -448.827 1594
1172.11 -448.827 1594
1173.9301 -448.827 1594
1175.75 -448.827 1594
1195.83 -664.44397 1665
1216.72 -664.44397 1665
1159.36 -564.815 1635
1146.4301 -511.78299 1609
1150.11 -511.78299 1609
1220.75 -684.25201 1681
1222.66 -684.25201 1681
1181.45 -522.888 1587
1183.26 -522.888 1587
1088.28 -658.42499 1669
1166.34 -658.42499 1669
1223.45 -658.42499 1669
1124.01 -553.74701 1619
1129.55 -553.74701 1619
1131.4 -553.74701 1619
1133.24 -553.74701 1619
1183.87 -559.74799 1615
1148.16 -515.21503 1614
1159.2 -515.21503 1614
1237.38 -604.69299 1642
1201.79 -695.078 1684
1157.12 -653.64001 1624
1190.71 -645.28302 1650
1147.86 -522.112 1624
1149.71 -522.112 1624
1151.5601 -522.112 1624
1170.09 -522.112 1624
1201.58 -522.112 1624
1149.87 -518.65698 1619
1164.64 -518.65698 1619
1143.13 -699.896 1691
1170.3199 -464.45001 1604
1195.9301 -464.45001 1604
1236.04 -631.39301 1668
1210.99 -629.10498 1652
1241.14 -629.10498 1652
1243.03 -629.10498 1652
1199.08 -598.65601 1646
1146.77 -678.19202 1685
1179.86 -635.10101 1648
1250.5601 -678.19202 1685
1190.13 -614.80701 1644
1235.13 -614.80701 1644
1238.88 -614.80701 1644
1240.76 -614.80701 1644
1201.09 -483.349 1606
1227.76 -689.02698 1688
1234.76 -624.94299 1646
1242.27 -624.94299 1646
1194.0699 -616.659 1634
1049.59 -627.22601 1662
1060.97 -627.22601 1662
1205.76 -618.93298 1650
1207.64 -618.93298 1650
1188.5601 -586.89899 1629
1190.97 -620.79401 1640
1215.6899 -580.88898 1633
1132.29 -558.71802 1639
1199.59 -558.71802 1639
1125.35 -582.46503 1648
1191.14 -582.46503 1648
1238.14 -582.46503 1648
1184.0601 -651.229 1646
1207.5 -573.27502 1622
1180.87 -564.086 1596
1177 -641.06097 1644
1266.9 -728.19098 1694
1129.04 -574.84198 1637
1204.91 -612.88599 1654
1233.21 -612.88599 1654
1235.1 -612.88599 1654
1164.04 -654.16101 1663
1209.5699 -654.16101 1663
1156.54 -509.10901 1618
1201.5699 -602.72302 1652
1203.46 -602.72302 1652
1152.1 -561.22803 1630
1217.1801 -561.22803 1630
1264.47 -738.53802 1709
1193.0601 -556.17798 1610
1244.71 -722.16302 1698
1170.71 -660.15698 1659
1197.2 -660.15698 1659
1199.09 -660.15698 1659
1200.98 -660.15698 1659
1224.4301 -617.00299 1660
1226.33 -617.00299 1660
1228.22 -617.00299 1660
1230.11 -617.00299 1660
1232.01 -617.00299 1660
1208.25 -512.53302 1623
1178.03 -681.12799 1664
1090.78 -648.12799 1667
1102.1899 -648.12799 1667
1166.84 -648.12799 1667
1176.97 -663.09802 1676
1240.0601 -663.09802 1676
1164.33 -657.13898 1642
1172.26 -646.98499 1640
1174.13 -646.98499 1640
1224.64 -590.92499 1635
1180.9399 -562.12402 1606
1191.9301 -562.12402 1606
1232.41 -606.80298 1658
1201.64 -476.99701 1597
1205.29 -476.99701 1597
1216.6899 -499.57199 1617
1171.11 -568.75897 1641
1187.5 -717.25702 1691
1227.64 -584.89301 1639
1170.3199 -452.05899 1599
1214.48 -679.89899 1675
1182.58 -535.52502 1631
1171.55 -642.05902 1671
1172.12 -643.901 1661
1148.4301 -673.862 1679
1175.24 -673.862 1679
1244.1899 -673.862 1679
1225.11 -711.21899 1695
1227.05 -711.21899 1695
1232.85 -711.21899 1695
1185.97 -577.25299 1628
1213.83 -577.25299 1628
1267.0601 -733.57098 1702
1269 -733.57098 1702
1176.52 -461.46701 1600
1183.83 -461.46701 1600
1185.65 -461.46701 1600
1089.16 -655.88397 1653
1190.98 -655.88397 1653
1115.21 -690.68701 1678
1189.4 -578.823 1643
1045.79 -637.854 1665
1047.6899 -637.854 1665
1049.59 -637.854 1665
1051.49 -637.854 1665
1138.85 -637.854 1665
1219.36 -664.84302 1666
1172.51 -568.034 1602
1181.1801 -684.659 1682
1219.55 -684.659 1682
1193.7 -470.88699 1601
1197.35 -470.88699 1601
1226.09 -658.82001 1670
1228 -658.82001 1670
1114.86 -700.31 1692
1203.04 -525.07001 1616
1201.33 -539.60999 1599
1236.26 -605.06201 1643
1130.21 -565.15997 1636
1161.9399 -565.15997 1636
1235.89 -588.90997 1645
1184.17 -689.435 1689
1230.41 -689.435 1689
1232.34 -689.435 1689
1251.6 -689.435 1689
1253.53 -689.435 1689
1259.3101 -689.435 1689
1261.24 -689.435 1689
1263.16 -689.435 1689
1207.86 -554.08899 1620
1145.3101 -512.10101 1610
1152.66 -512.10101 1610
1237.76 -615.18103 1645
1048.33 -627.60303 1663
1227.99 -599.02002 1647
1229.87 -599.02002 1647
1266.59 -734.617 1691
1272.37 -734.617 1691
1197.4399 -480.04501 1589
1202.29 -515.534 1615
1263.26 -738.96997 1710
1230.98 -619.30798 1651
1232.86 -619.30798 1651
1235.13 -609.15198 1649
1179.83 -566.06299 1612
1200.0601 -566.06299 1612
1211.97 -545.49597 1633
1169.21 -449.108 1595
1178.3101 -449.108 1595
1185.22 -641.45099 1645
1202.3199 -518.97803 1620
1198.58 -587.25897 1630
1235.76 -722.58801 1699
1218.3 -581.24402 1634
1181.91 -631.29999 1643
1185.65 -631.29999 1643
1187.53 -631.29999 1643
1191.09 -675.56 1669
1171.04 -669.54498 1673
1172.95 -669.54498 1673
1226.39 -669.54498 1673
1228.3 -669.54498 1673
1090.72 -654.55402 1664
1098.3101 -654.55402 1664
1203.6 -660.55499 1660
1176.14 -564.43903 1597
1177.96 -564.43903 1597
1127.71 -567.61902 1627
1164.78 -559.05902 1640
1237.74 -559.05902 1640
1161.29 -592.94098 1651
1163.1801 -592.94098 1651
1165.0601 -592.94098 1651
1198.96 -592.94098 1651
1182.77 -474.189 1606
1127.86 -575.19299 1638
1184.96 -579.60199 1619
1200.41 -603.08801 1653
1087.63 -648.51703 1668
1205.98 -550.53601 1615
1223.27 -617.375 1661
1076.28 -663.49402 1677
1137.5 -663.49402 1677
1148.97 -663.49402 1677
1255.76 -717.68103 1692
1184.61 -556.52399 1611
1195.64 -556.52399 1611
1185.39 -723.68597 1688
1187.3199 -723.68597 1688
1169.24 -647.37903 1641
1176.72 -647.37903 1641
1159.1 -509.423 1619
1213.6801 -496.496 1613
1229.7 -711.63898 1696
1231.64 -711.63898 1696
1241.3101 -711.63898 1696
1265.86 -734.00201 1703
1234.72 -591.28699 1636
1214.23 -607.16901 1659
1170.34 -642.44299 1672
1179.88 -642.44299 1672
1183.6899 -642.44299 1672
1185.38 -503.92099 1573
1200.26 -650.30298 1658
1074.37 -674.263 1680
1076.29 -674.263 1680
1101.2 -674.263 1680
1143.36 -674.263 1680
1239.1801 -674.263 1680
1130.61 -569.10602 1642
1228.01 -569.10602 1642
1167.14 -644.28802 1662
1174.72 -644.28802 1662
1176.61 -644.28802 1662
1178.51 -644.28802 1662
1210.74 -644.28802 1662
1213.26 -546.995 1610
1113.96 -691.099 1679
1114.75 -695.90302 1686
1133.99 -695.90302 1686
1214.52 -685.06598 1683
1226.04 -685.06598 1683
1227.96 -685.06598 1683
1126.09 -564.02399 1622
1094.58 -665.242 1667
1172.55 -665.242 1667
1195.37 -665.242 1667
1200.5699 -477.29599 1598
1219.29 -499.88 1618
1117.45 -700.724 1693
1146.42 -700.724 1693
1208.22 -700.724 1693
1277.74 -700.724 1693
1175.4301 -671.23401 1663
1177.3199 -671.23401 1663
1054.02 -638.237 1666
1055.92 -638.237 1666
1057.8199 -638.237 1666
1061.62 -638.237 1666
1126.23 -638.237 1666
1190.85 -638.237 1666
1245.96 -638.237 1666
1230.64 -659.21399 1671
1124.49 -579.17603 1644
1169.5 -579.17603 1644
1171.37 -579.17603 1644
1128.14 -571.57501 1633
1156.08 -571.57501 1633
1179.41 -662.22302 1650
1199.5 -486.71399 1599
1161.12 -532.35602 1627
1162.97 -532.35602 1627
1166.6801 -532.35602 1627
1168.54 -532.35602 1627
1174.11 -532.35602 1627
1177.8199 -532.35602 1627
1186.05 -568.388 1603
1175.1899 -646.065 1652
1221.5 -689.84302 1690
1256.2 -689.84302 1690
1265.84 -689.84302 1690
1178.28 -677.18903 1659
1200.4399 -551.93103 1630
1202.3 -551.93103 1630
1171.78 -461.755 1601
1175.4301 -461.755 1601
1188.22 -461.755 1601
1088.37 -653.14899 1675
1232.6 -723.013 1700
1234.54 -723.013 1700
1238.42 -723.013 1700
1248.12 -723.013 1700
1235.13 -605.42999 1644
1200.5699 -521.04401 1598
1202.4 -521.04401 1598
1192.53 -565.505 1637
1200.0601 -521.93103 1612
1238.14 -625.70203 1648
1240.02 -625.70203 1648
1241.9 -625.70203 1648
1193.45 -615.55499 1646
1181.65 -471.181 1602
1199.92 -471.181 1602
1203.15 -530.48999 1599
1176.5601 -675.96399 1670
1203.66 -621.55103 1642
1128.16 -560.44098 1617
1047.0601 -627.97998 1664
1067.9399 -627.97998 1664
1210.99 -619.68298 1652
1136.49 -554.43103 1621
1191.97 -554.43103 1621
1228.63 -623.82501 1658
1197.5699 -527.013 1594
1180.75 -631.685 1644
1200.67 -480.61801 1603
1188.95 -681.94702 1666
1206.22 -660.953 1661
1087.5699 -654.948 1665
1089.47 -654.948 1665
1212.9301 -654.948 1665
1189.22 -536.44098 1595
1217.87 -718.10498 1693
1155.21 -512.41901 1611
1191.0699 -581.59998 1635
1220.91 -581.59998 1635
1202.3199 -548.38397 1625
1191.26 -613.62701 1656
1147.74 -515.85303 1616
1210.85 -573.98199 1624
1136.26 -663.89001 1678
1168.8 -663.89001 1678
1147.42 -522.755 1626
1173.39 -522.755 1626
1126.55 -567.96802 1628
1187.83 -567.96802 1628
1264.66 -734.43298 1704
1179.3101 -647.77301 1642
1110.72 -680.711 1677
1112.63 -680.711 1677
1198.71 -680.711 1677
1202.54 -680.711 1677
1208.28 -680.711 1677
1167.65 -593.30103 1652
1197.8 -593.30103 1652
1216.4301 -617.74597 1662
1220.22 -617.74597 1662
1222.12 -617.74597 1662
1191.71 -712.05798 1697
1126.6801 -575.54401 1639
1191.98 -550.87701 1616
1155.38 -561.91699 1632
1198.22 -556.86902 1612
1124.2 -691.51001 1680
1179.78 -691.51001 1680
1249.29 -642.82703 1673
1175.24 -708.336 1679
1205.5 -474.48499 1607
1182.37 -500.85001 1569
1088.16 -644.67603 1663
1209.5699 -644.67603 1663
1229.87 -591.64801 1637
1088.59 -656.67798 1655
1169.45 -665.64099 1668
1222.72 -665.64099 1668
1179.27 -603.62201 1629
1181.13 -603.62201 1629
1193.15 -569.45203 1643
1185.62 -671.638 1664
1195.4399 -585.60602 1641
1187.9301 -504.241 1574
1166.53 -659.60901 1672
1233.28 -659.60901 1672
1198.3199 -483.677 1595
1045.14 -638.62 1667
1060.36 -638.62 1667
1125.01 -638.62 1667
1223.89 -638.62 1667
1154.48 -555.82898 1636
1228.01 -690.25098 1691
1251.16 -690.25098 1691
1258.87 -690.25098 1691
1268.52 -690.25098 1691
1270.4399 -690.25098 1691
1272.37 -690.25098 1691
1165.51 -640.46002 1657
1167.4 -640.46002 1657
1201.4301 -640.46002 1657
1180.88 -677.59698 1660
1217.1801 -577.96198 1630
1172.13 -646.45599 1653
1231.39 -723.43799 1701
1202.52 -595.69098 1643
1214.9399 -558.33899 1627
1224.76 -653.539 1676
1188.1 -652.41602 1649
1197.6801 -477.595 1599
1199.5 -477.595 1599
1186.08 -611.81299 1641
1158.12 -532.68298 1628
1159.97 -532.68298 1628
1165.54 -532.68298 1628
1171.11 -532.68298 1628
1172.97 -532.68298 1628
1180.4 -532.68298 1628
1267.77 -724.54401 1690
1141.87 -670.34601 1675
1143.78 -670.34601 1675
1231.67 -670.34601 1675
1178.25 -682.35602 1667
1168.46 -607.224 1609
1177.27 -642.23102 1647
1194.85 -534.31201 1605
1239.27 -589.62598 1647
1235.51 -615.92902 1647
1045.79 -628.35797 1665
1191.54 -718.52899 1694
1164.24 -655.341 1666
1215.55 -655.341 1666
1217.45 -655.341 1666
1213.61 -620.05798 1653
1228.7 -620.05798 1653
1165.23 -565.85101 1638
1195.11 -511.92999 1598
1189.54 -609.89099 1651
1234.74 -609.89099 1651
1263.46 -734.86401 1705
1204.65 -540.28497 1601
1206.48 -540.28497 1601
1127.01 -560.78699 1618
1130.7 -560.78699 1618
1132.55 -560.78699 1618
1184.22 -560.78699 1618
1198.92 -518.802 1608
1071.8199 -664.28497 1679
1225.34 -712.47803 1698
1244.71 -712.47803 1698
1201.34 -681.117 1678
1205.17 -681.117 1678
1207.08 -681.117 1678
1220.48 -681.117 1678
1233.5601 -613.99799 1657
1223.52 -581.95599 1636
1158.55 -645.17102 1626
1191.79 -536.77698 1596
1193.61 -536.77698 1596
1195.4301 -536.77698 1596
1152.4 -675.06598 1682
1145.8199 -568.31598 1629
1149.54 -568.31598 1629
1151.39 -568.31598 1629
1201.9 -512.737 1612
1167.62 -651.08698 1660
1125.5 -575.896 1640
1164.78 -575.896 1640
1189.1 -575.896 1640
1201.95 -523.07599 1627
1201.91 -701.552 1695
1176.53 -572.70697 1610
1178.37 -572.70697 1610
1185.71 -572.70697 1610
1187.55 -572.70697 1610
1189.39 -572.70697 1610
1114.09 -685.88 1685
1181.36 -685.88 1685
1217.88 -685.88 1685
1219.8101 -685.88 1685
1148.3 -519.61902 1622
1150.15 -519.61902 1622
1168.65 -519.61902 1622
1201.95 -519.61902 1622
1085.02 -645.06403 1664
1166.64 -645.06403 1664
1214.1 -645.06403 1664
1094.92 -657.07501 1656
1176.97 -714.71802 1676
1190.87 -551.21802 1617
1191.48 -562.26099 1633
1267.96 -729.90997 1698
1225.36 -666.03998 1669
1184.24 -557.21503 1613
1197.13 -480.64999 1591
1200.76 -480.64999 1591
1225.02 -592.01001 1638
1232.49 -592.01001 1638
1234.36 -592.01001 1638
1203.0601 -545.185 1621
1140.51 -660.00299 1673
1230.17 -723.86401 1702
1064.8 -639.00403 1668
1142.8101 -639.00403 1668
1190.38 -639.00403 1668
1181.3101 -563.17401 1609
1195.99 -563.17401 1609
1136.23 -585.96301 1642
1138.11 -585.96301 1642
1141.85 -585.96301 1642
1231.76 -585.96301 1642
1166.34 -709.82898 1669
1205.9301 -640.84601 1658
1195.48 -646.84698 1654
1175.12 -569.79901 1644
1208.09 -474.78 1608
1162.38 -510.05301 1621
1235.87 -602.086 1640
1192.7 -547.67499 1612
1201.86 -556.16901 1637
1129.22 -634.80902 1662
1244.87 -634.80902 1662
1187.1 -584.32202 1627
1171.88 -652.81201 1650
1125.63 -564.71997 1624
1140.45 -564.71997 1624
1144.15 -564.71997 1624
1221.67 -653.92902 1677
1227.41 -653.92902 1677
1185.09 -504.56201 1575
1180.14 -570.71997 1620
1209.71 -570.71997 1620
1227.63 -596.05298 1644
1228.98 -718.953 1695
1232.85 -718.953 1695
1234.78 -718.953 1695
1256.05 -718.953 1695
1180.84 -636.64301 1652
1178.7 -459.06699 1598
1128.4 -558.68201 1628
1148.83 -558.68201 1628
1169.12 -649.81097 1633
1073.73 -670.74597 1676
1098.58 -670.74597 1676
1113.88 -670.74597 1676
1146.38 -670.74597 1676
1215.8101 -630.62799 1656
1242.26 -630.62799 1656
1169.04 -579.88 1646
1189.7 -579.88 1646
1189.21 -572.27502 1635
1176.1 -642.62097 1648
1184.6 -576.685 1616
1211.41 -626.461 1650
1192 -505.422 1589
1091.96 -661.74902 1663
1209.5699 -661.74902 1663
1189.7 -606.16699 1646
1234.76 -606.16699 1646
1086.98 -655.73401 1667
1102.1899 -655.73401 1667
1198.86 -618.16803 1638
1143.34 -628.73499 1666
1180.3101 -632.453 1646
1240.76 -622.30798 1644
1183.09 -468.47501 1599
1184.91 -468.47501 1599
1186.73 -468.47501 1599
1218.12 -620.43298 1654
1220.01 -620.43298 1654
1198.66 -589.98401 1648
1241.9 -589.98401 1648
1183.47 -714.05902 1688
1135.7 -664.68103 1680
1211.63 -681.52301 1679
1219.29 -681.52301 1679
1156.97 -533.01001 1629
1205.76 -600.11102 1650
1087.6801 -649.68298 1671
1193.9301 -508.82999 1594
1210.25 -534.64502 1606
1182.62 -648.56201 1644
1192.12 -566.19598 1639
1225.77 -566.19598 1639
1114.03 -692.33398 1682
1127.46 -692.33398 1682
1200.41 -528.63 1610
1125.86 -561.13397 1619
1205.27 -561.13397 1619
1161.12 -645.56799 1627
1162.97 -645.56799 1627
1267.9301 -726.005 1680
1137.9301 -697.14203 1689
1137.73 -675.46698 1683
1141.5699 -675.46698 1683
1143.49 -675.46698 1683
1139.75 -555.11499 1623
1130.91 -582.31097 1637
1132.77 -582.31097 1637
1180.1899 -567.117 1615
1270.33 -701.966 1696
1272.27 -701.966 1696
1122.45 -686.28699 1686
1249.38 -686.28699 1686
1251.3 -686.28699 1686
1257.0699 -686.28699 1686
1259 -686.28699 1686
1264.77 -686.28699 1686
1092.54 -651.47998 1661
1164.54 -651.47998 1661
1166.4301 -651.47998 1661
1204.33 -651.47998 1661
1195.76 -657.47101 1657
1193.5 -524.20599 1591
1087.5699 -645.45099 1665
1091.37 -645.45099 1665
1093.27 -645.45099 1665
1095.17 -645.45099 1665
1198 -537.11401 1597
1175.65 -672.44501 1666
1197.37 -594.01898 1654
1172.75 -666.44 1670
1228 -666.44 1670
1144.66 -568.66498 1630
1148.38 -568.66498 1630
1191.53 -462.332 1603
1201.76 -724.289 1703
1228.95 -724.289 1703
1164.78 -654.46802 1640
1124.3101 -576.24701 1641
1178.51 -678.414 1662
1184.2 -678.414 1662
1145.6 -513.05499 1613
1158.48 -513.05499 1613
1137.37 -660.39801 1674
1139.28 -660.39801 1674
1262.65 -721.07202 1673
1147.3101 -516.492 1618
1163.92 -516.492 1618
1210.0601 -551.55902 1618
1211.91 -551.55902 1618
1213.75 -551.55902 1618
1044.49 -639.38702 1669
1067.34 -639.38702 1669
1090.1899 -639.38702 1669
1122.55 -639.38702 1669
1124.45 -639.38702 1669
1130.7 -562.60498 1634
1158.66 -562.60498 1634
1147.15 -519.93903 1623
1204.77 -641.23297 1659
1208.55 -641.23297 1659
1218.1 -719.37701 1696
1227.77 -719.37701 1696
1231.64 -719.37701 1696
1237.4399 -719.37701 1696
1239.38 -719.37701 1696
1210.48 -542.96698 1631
1133.1801 -586.32001 1643
1135.05 -586.32001 1643
1140.67 -586.32001 1643
1128 -635.19098 1663
1131.79 -635.19098 1663
1133.6899 -635.19098 1663
1135.59 -635.19098 1663
1219.0601 -635.19098 1663
1262.99 -735.72601 1707
1177.76 -683.17499 1669
1178.3101 -561.91302 1595
1072.46 -671.146 1677
1141.3199 -671.146 1677
1235.0601 -671.146 1677
1236.97 -671.146 1677
1148.45 -506.95001 1617
1150.29 -506.95001 1617
1127.45 -578.67102 1632
1129.3101 -578.67102 1632
1191.6 -548.01501 1613
1212.2 -662.14697 1664
1214.1 -662.14697 1664
1215.99 -662.14697 1664
1200.23 -596.41602 1645
1189.98 -643.01099 1649
1143.01 -565.06702 1625
1146.71 -565.06702 1625
1187.49 -565.06702 1625
1157.76 -556.508 1638
1159.62 -556.508 1638
1220.8199 -656.12799 1668
1193.15 -612.55902 1643
1189.61 -614.41901 1633
1169.59 -449.953 1598
1189 -510.367 1622
1190.85 -510.367 1622
1173.3101 -668.13 1660
1124.66 -580.23199 1647
1197.9301 -606.53497 1647
1140.62 -708.44897 1693
1142.5601 -708.44897 1693
1187.1801 -577.04199 1617
1194.5601 -577.04199 1617
1179.15 -632.83698 1647
1207.74 -622.68701 1645
1235.89 -622.68701 1645
1237.76 -622.68701 1645
1192.27 -559.02502 1629
1110.79 -681.92798 1680
1177.86 -681.92798 1680
1235.13 -616.67603 1649
1216.97 -620.80798 1655
1168.4399 -650.07202 1672
1244.53 -590.34198 1649
1170.21 -648.95697 1645
1268.4 -736.789 1696
1193.41 -544.48199 1608
1213.59 -544.48199 1608
1168.8 -715.57098 1678
1181.26 -459.35501 1599
1267.51 -730.77002 1700
1275.48 -697.55402 1690
1152.13 -647.13397 1617
1234.35 -610.63 1653
1200.84 -600.47498 1651
1189.61 -508.28699 1581
1193.21 -508.28699 1581
1101.9 -675.86798 1684
1140.3199 -675.86798 1684
1265.1899 -675.86798 1684
1180.84 -686.69397 1687
1232.8 -686.69397 1687
1261.67 -686.69397 1687
1170.39 -566.54199 1640
1231.26 -614.73901 1659
1233.16 -614.73901 1659
1095.09 -651.87201 1662
1170.9301 -651.87201 1662
1210.85 -588.70001 1634
1182 -468.76801 1600
1189.3 -468.76801 1600
1191.13 -468.76801 1600
1225.79 -724.71399 1704
1227.73 -724.71399 1704
1135.79 -561.48102 1620
1198.37 -657.86798 1658
1189.66 -672.849 1667
1191.53 -540.96002 1603
1095.3 -666.83899 1671
1127.86 -582.66699 1638
1129.73 -582.66699 1638
1135.33 -582.66699 1638
1142.3 -555.45697 1624
1212.7 -555.45697 1624
1204.88 -567.46802 1616
1197.35 -478.19199 1601
1084.4301 -645.83899 1666
1097.73 -645.83899 1666
1166.14 -645.83899 1666
1208.99 -604.547 1657
1210.88 -604.547 1657
1214.9399 -575.04199 1627
1171.78 -565.85303 1601
1159.05 -705.80402 1664
1160.95 -705.80402 1664
1198.51 -516.00299 1605
1143.78 -660.79199 1675
1237.41 -660.79199 1675
1147.86 -642.89502 1611
1268.08 -725.83002 1693
1271.95 -725.83002 1693
1201.42 -506.53299 1604
1267.02 -731.82098 1689
1178.35 -556.37402 1600
1180.1801 -556.37402 1600
1182 -556.37402 1600
1126.76 -569.01398 1631
1217.92 -569.01398 1631
1242.04 -719.802 1697
1189.64 -537.45001 1598
1192.7 -573.41803 1612
1188.6801 -576.59802 1642
1261.79 -736.15698 1708
1088.9301 -639.77002 1670
1092.74 -639.77002 1670
1094.65 -639.77002 1670
1096.55 -639.77002 1670
1098.46 -639.77002 1670
1100.36 -639.77002 1670
1102.27 -639.77002 1670
1104.17 -639.77002 1670
1113.7 -639.77002 1670
1115.6 -639.77002 1670
1117.51 -639.77002 1670
1119.41 -639.77002 1670
1194.71 -592.73199 1640
1204.0699 -592.73199 1640
1171.41 -641.62 1660
1178.99 -641.62 1660
1180.88 -641.62 1660
1211.1801 -641.62 1660
1146.4301 -509.948 1609
1215.66 -677.58398 1674
1217.5699 -677.58398 1674
1193.71 -683.58398 1670
1171.42 -653.60303 1652
1183.87 -557.90503 1615
1054.65 -635.573 1664
1058.45 -635.573 1664
1060.35 -635.573 1664
1062.24 -635.573 1664
1126.78 -635.573 1664
1202.71 -635.573 1664
1204.6 -635.573 1664
1206.5 -635.573 1664
1221.6899 -635.573 1664
1239.62 -671.54602 1678
1241.54 -671.54602 1678
1203.42 -516.81097 1619
1182.03 -472.06299 1605
1182.65 -498.42401 1567
1131.99 -586.677 1644
1145.12 -586.677 1644
1201.58 -520.25897 1624
1178.5 -637.414 1654
1180.38 -637.414 1654
1201.09 -481.517 1606
1102.77 -662.54498 1665
1218.62 -662.54498 1665
1183.91 -608.82599 1638
1235.5 -602.82001 1642
1175.65 -643.401 1650
1235.98 -708.867 1694
1237.92 -708.867 1694
1223.45 -656.521 1669
1171.76 -562.26501 1596
1175.4 -562.26501 1596
1177.22 -562.26501 1596
1176.12 -710.02399 1683
1278.8199 -737.224 1697
1180.48 -682.33398 1681
1214.99 -682.33398 1681
1216.91 -682.33398 1681
1224.58 -682.33398 1681
1197.85 -585.03998 1629
1206.59 -596.77899 1646
1124.42 -579.026 1633
1126.28 -579.026 1633
1221.28 -579.026 1633
1130.72 -693.15698 1684
1203.72 -693.15698 1684
1125.16 -565.41498 1626
1212.34 -565.41498 1626
1231 -623.065 1646
1234.76 -623.065 1646
1240.39 -623.065 1646
1218.12 -548.354 1614
1234.38 -606.90302 1648
1236.04 -629.48999 1668
1186.42 -501.80801 1572
1162.2 -556.84802 1639
1056.54 -650.461 1673
1108.0699 -650.461 1673
1218.75 -650.461 1673
1220.66 -650.461 1673
1116.13 -697.96698 1691
1141.21 -697.96698 1691
1208.72 -697.96698 1691
1190.84 -569.80701 1607
1189.26 -580.58502 1648
1238.14 -580.58502 1648
1049.59 -625.33002 1662
1051.49 -625.33002 1662
1053.38 -625.33002 1662
1183.0601 -629.04303 1642
1189.76 -577.39801 1618
1197.14 -577.39801 1618
1180.75 -639.18597 1644
1182.62 -639.18597 1644
1129.04 -572.97498 1637
1224.27 -572.97498 1637
1248.9399 -687.10101 1688
1254.71 -687.10101 1688
1256.64 -687.10101 1688
1264.34 -687.10101 1688
1177.52 -676.27002 1685
1250.5601 -676.27002 1685
1231.33 -610.99902 1654
1233.21 -610.99902 1654
1191.5601 -502.65799 1586
1145.53 -590.70001 1650
1147.42 -590.70001 1650
1149.3 -590.70001 1650
1160.59 -590.70001 1650
1162.47 -590.70001 1650
1191.9301 -560.29199 1606
1102.85 -673.25201 1668
1091.96 -652.26398 1663
1164.04 -652.26398 1663
1089.33 -658.26501 1659
1217.36 -538.815 1613
1184.91 -450.23499 1599
1231.38 -667.23798 1672
1230.11 -615.10901 1660
1193.47 -726.258 1694
1269.6899 -732.255 1690
1224.64 -589.06 1635
1178.03 -679.22998 1664
1218.54 -532.77301 1617
1169.24 -566.88702 1641
1172.98 -566.88702 1641
1191.7 -566.88702 1641
1223.41 -720.22601 1698
1227.28 -720.22601 1698
1178.35 -459.642 1600
1124.8101 -583.02301 1639
1137.9 -583.02301 1639
1139.77 -583.02301 1639
1227.64 -583.02301 1639
1125.4 -561.82703 1621
1138.34 -561.82703 1621
1140.1899 -561.82703 1621
1142.04 -561.82703 1621
1090.9301 -661.18701 1676
1167.41 -661.18701 1676
1210.48 -530.17401 1626
1180.91 -469.061 1601
1193.7 -469.061 1601
1176.86 -648.021 1657
1247.79 -640.15302 1671
1109.39 -677.98798 1675
1111.3 -677.98798 1675
1178.1801 -677.98798 1675
1206.84 -677.98798 1675
1198 -518.896 1597
1166.4301 -642.00598 1661
1177.8 -642.00598 1661
1195.28 -573.77399 1613
1192.87 -653.99902 1653
1201.33 -537.78601 1599
1098.63 -671.94598 1679
1150.34 -671.94598 1679
1173.33 -671.94598 1679
1196.8199 -524.86499 1593
1264.4301 -727.302 1683
1161.9399 -651.005 1636
1234.78 -709.28601 1695
1119.03 -688.77301 1678
1120.95 -688.77301 1678
1199.4301 -688.77301 1678
1047.6899 -635.95502 1665
1049.59 -635.95502 1665
1051.49 -635.95502 1665
1053.39 -635.95502 1665
1057.1801 -635.95502 1665
1064.78 -635.95502 1665
1066.6801 -635.95502 1665
1125.5601 -635.95502 1665
1138.85 -635.95502 1665
1221.26 -662.94299 1666
1191.23 -552.24103 1620
1191.8 -563.29401 1636
1223.52 -563.29401 1636
