# .PCD v0.7 - Point Cloud Data file format
VERSION 0.7
FIELDS x y z
SIZE 4 4 4
TYPE F F F
COUNT 1 1 1
WIDTH 1981
HEIGHT 1
VIEWPOINT 0 0 0 1 0 0 0
POINTS 1981
DATA ascii
571.86102 523.53003 1438
604.21899 514.14099 1477
571.46399 533.00098 1437
526.78302 505.26501 1401
463.11099 517.58301 1307
467.58401 517.58301 1307
631.54401 537.979 1506
627.34998 536.11401 1496
578.05798 564.37598 1417
579.67401 564.37598 1417
570.36298 563.203 1406
549.58099 504.875 1427
596.00702 525.237 1461
540.72302 520.76099 1404
525.65503 507.37299 1398
620.75299 518.39502 1509
659.33197 556.54999 1568
661.12097 556.54999 1568
662.90997 556.54999 1568
533.47803 585.54199 1361
606.836 532.63202 1463
593.52698 517.86102 1459
526.11798 509.46701 1395
600.94598 519.73499 1469
523.85498 513.61298 1389
543.87 491.729 1408
545.47601 491.729 1408
612.52502 576.06799 1489
614.224 576.06799 1489
469.01501 523.65302 1311
558.34998 506.77399 1437
504.55499 508.521 1371
506.11899 508.521 1371
615.15997 565.45099 1479
616.84698 565.45099 1479
499.965 458.698 1367
567.18799 508.64999 1447
670.40601 561.91302 1573
494.04501 522.08197 1326
572.70398 516.25 1436
541.30499 569.01001 1385
543.25897 556.79401 1390
548.01599 556.79401 1390
549.60199 556.79401 1390
608.47699 527.15503 1471
567.04901 546.71698 1430
568.67999 546.71698 1430
570.31097 546.71698 1430
530.91901 480.23999 1412
532.53003 480.23999 1412
519.75299 474.45801 1395
508.79401 506.49899 1374
544.64203 534.245 1410
567.487 548.82599 1427
554.98401 518.59698 1420
581.19501 542.41101 1449
586.15302 542.41101 1449
675.05902 560.12402 1563
678.625 560.12402 1563
474.94601 529.75098 1315
557.14697 575.58301 1401
574.82703 553.00201 1421
617.703 554.92499 1469
619.37903 554.92499 1469
517.97803 535.83502 1357
509.44199 502.414 1380
510.54901 500.35101 1383
582.04303 535.06 1447
583.69397 535.06 1447
672.51202 558.31201 1553
593.12 527.48499 1458
594.78302 527.48499 1458
632.42102 592.16498 1504
636.19098 524.849 1538
534.61298 482.43399 1409
536.21997 482.43399 1409
666.42102 556.47699 1543
533.07898 584.14801 1376
537.78802 584.14801 1376
577.94202 527.72699 1445
506.85501 524.59302 1348
466.02399 532.62598 1311
467.51901 532.62598 1311
469.01501 532.62598 1311
470.51001 532.62598 1311
480.90399 535.87598 1319
482.409 535.87598 1319
521.06097 521.91101 1390
512.22601 540.771 1350
607.23602 529.42902 1468
528.54199 519.85901 1393
506.50699 545.62701 1343
508.03799 545.62701 1343
558.69598 549.88898 1413
511.84698 512.68903 1378
555.03601 486.44601 1416
587.83197 554.09998 1445
589.47998 554.09998 1445
574.81897 585.44299 1425
623.93701 589.01501 1496
625.64398 589.01501 1496
523.77802 533.91699 1360
550.96802 511.396 1418
552.58502 511.396 1418
554.203 511.396 1418
555.82001 511.396 1418
557.651 511.18799 1431
559.284 511.18799 1431
536.75403 531.21399 1402
547.909 484.61499 1406
531.05798 561.87799 1383
539.50598 529.146 1405
507.28201 529.51703 1341
515.34802 482.76001 1396
565.22803 503.603 1442
556.35199 568.37799 1399
519.008 502.38 1393
564.34802 571.62799 1407
592.71301 537.09601 1457
569.17102 574.87799 1415
576.742 529.92102 1442
593.52698 544.48999 1459
596.48199 585.78998 1450
598.13599 585.78998 1450
636.29602 594.40802 1501
638.008 594.40802 1501
622.29797 533.24701 1488
685.63202 560.83099 1575
500.789 521.47998 1340
589.901 582.55798 1442
504.71899 485.09799 1380
465.73599 518.67603 1306
596.87903 591.12903 1455
589.42902 522.36102 1453
625.28302 557.01501 1479
626.96997 557.01501 1479
592.36798 575.17999 1440
594.01099 575.17999 1440
511.065 522.67798 1351
512.60602 522.67798 1351
519.505 542.07202 1361
587.85602 577.26001 1437
603.49902 594.38 1463
605.16699 594.38 1463
540.53302 582.27502 1379
582.953 574.04602 1429
620.64099 538.82098 1480
622.32898 538.82098 1480
551.18298 563.16602 1394
598.492 524.28802 1463
465.668 524.74799 1310
467.16299 524.74799 1310
468.65701 524.74799 1310
502.258 501.53299 1369
503.819 501.53299 1369
511.65701 463.492 1386
513.23798 463.492 1386
533.086 586.66302 1360
573.901 532.10199 1439
607.66602 531.68903 1465
559.797 524.93103 1424
528.39899 543.323 1372
537.586 488.935 1400
539.18298 488.935 1400
614.68103 569.82202 1486
569.62402 507.70001 1449
619.28003 529.92902 1493
582.39801 531.94 1452
535.83002 581.88599 1367
537.38898 581.88599 1367
526.48901 581.41498 1355
554.98401 492.67999 1420
543.09698 519.89899 1406
526.40698 506.50201 1400
561.93103 561.19098 1397
474.58499 530.84698 1314
567.78998 534.26801 1436
569.42798 534.26801 1436
501.06201 509.71301 1370
502.625 509.71301 1370
538.73798 521.99103 1403
526.87201 508.603 1397
499.134 457.80701 1369
521.89502 514.82703 1388
546.03699 557.97803 1389
526.19598 512.76599 1391
504.56201 456.01599 1397
506.15601 456.01599 1397
507.75 456.01599 1397
527.33099 510.69199 1394
517.21503 528.86298 1355
673.21198 549.04498 1567
537.39697 541.37402 1375
555.53302 582.03497 1405
557.13501 582.03497 1405
586.96198 541.50403 1451
499.70999 529.32703 1329
603.81 515.47699 1476
675.35999 554.383 1572
528.01398 561.69397 1371
529.578 561.69397 1371
500.819 524.495 1336
517.59698 536.987 1356
559.01001 517.70502 1422
655.61499 580.15399 1522
545.64801 590.56799 1380
595.599 526.54303 1460
548.63599 533.39301 1412
550.24701 533.39301 1412
584.5 534.14697 1449
606.42102 533.93597 1462
569.91199 547.96503 1429
555.15302 576.76898 1400
621.89899 572.05499 1483
623.59003 572.05499 1483
668.513 559.745 1577
670.31201 559.745 1577
682.90399 559.745 1577
537.69 556.00702 1392
539.27698 556.00702 1392
540.86499 556.00702 1392
555.15601 556.00702 1392
556.74402 556.00702 1392
558.33197 556.00702 1392
473.02301 536.97302 1318
474.526 536.97302 1318
476.03 536.97302 1318
477.53299 536.97302 1318
565.46301 550.06799 1426
578.47601 550.06799 1426
534.992 508.51099 1410
554.59399 519.84998 1419
577.25897 552.15698 1423
608.06299 528.47302 1470
528.04199 584.84802 1363
540.14099 539.41199 1378
622.06097 519.77197 1508
577.48999 543.68799 1448
579.14203 543.68799 1448
551.57898 571.52698 1395
471.228 522.95398 1313
579.59003 519.48499 1445
581.23798 519.48499 1445
564.30902 554.02301 1395
565.90002 554.02301 1395
559.54303 574.80402 1403
567.95801 583.36102 1416
664.27399 557.98297 1567
581.64099 536.34003 1446
537.52002 512.75299 1404
508.43201 530.651 1340
595.19098 536.16901 1459
543.646 510.49799 1420
548.505 510.49799 1420
565.953 578.08197 1411
532.25 563.04797 1382
533.62799 481.85699 1398
536.37201 514.854 1401
587.72699 528.78601 1457
589.38898 528.78601 1457
591.05103 528.78601 1457
526.57501 521.07397 1392
577.54199 529.00897 1444
530.89203 519.01398 1395
505.569 460.40399 1391
507.15601 460.40399 1391
508.742 460.40399 1391
538.92297 550.84497 1387
542.08698 550.84497 1387
543.66901 550.84497 1387
533.62799 516.94098 1398
475.668 529.05402 1317
633.71503 593.48602 1503
549.46802 526.203 1410
551.07599 526.203 1410
515.73798 511.85901 1380
540.00702 587.10797 1398
541.60199 587.10797 1398
543.19702 587.10797 1398
504.96799 482.116 1385
462.327 525.841 1309
463.82001 525.841 1309
465.31299 525.841 1309
466.806 525.841 1309
537.52002 530.37097 1404
575.49597 538.51898 1443
665.71802 561.54797 1562
518.63501 503.60699 1392
541.71301 583.42499 1378
679.44 547.95599 1569
650.40601 554.112 1522
652.14301 554.112 1522
558.66101 512.65198 1417
545.91699 485.87299 1405
576.742 521.69702 1442
561.94202 550.013 1401
627.375 539.78601 1492
526.45001 588.28101 1371
528.01398 588.28101 1371
681.60498 553.29303 1574
549.60199 548.86603 1390
499.634 486.32001 1379
501.207 486.32001 1379
504.353 486.32001 1379
493.29999 524.315 1324
667.74799 557.875 1542
504.82599 488.401 1376
506.39499 488.401 1376
635.77698 526.26099 1537
637.53101 526.26099 1537
563.19202 504.897 1441
560.34399 567.59198 1401
549.19897 564.35101 1393
533.40601 561.10999 1385
650.44202 568.46997 1514
652.16901 568.46997 1514
615.87402 574.20898 1493
627.79498 574.20898 1493
629.49799 574.20898 1493
509.95001 536.83398 1344
529.20502 583.01898 1366
533.87903 583.01898 1366
536.99597 583.01898 1366
500.32999 502.72699 1368
501.89099 502.72699 1368
472.72601 531.94098 1313
551.026 514.79303 1414
579.28699 575.27301 1428
559.01001 491.75201 1422
560.63202 491.75201 1422
639.71997 568.72498 1501
546.638 516.91901 1411
606.31403 514.48901 1478
608 514.48901 1478
654.73798 579.17798 1524
528.758 505.62601 1402
516.83301 530.01703 1354
616.336 523.76599 1490
618.03601 523.76599 1490
556.75098 562.38202 1396
545.47601 519.03302 1408
527.62701 507.73599 1399
608.823 521.93903 1480
528.33197 555.93597 1380
532.30402 542.54797 1374
542.711 521.13202 1405
510.17999 466.884 1382
698.04102 559.26898 1591
536.75403 523.21802 1402
476.75201 527.24799 1320
478.258 527.24799 1320
523.70398 552.71301 1372
583.65198 533.229 1451
585.30701 533.229 1451
633.383 524.57898 1527
569.23102 509.00201 1448
601.39099 540.41302 1466
603.06403 540.41302 1466
615.96198 571.133 1485
617.65601 571.133 1485
564.33099 560.39899 1399
514.50299 546.26801 1356
516.04999 546.26801 1356
613.888 565.83301 1480
618.95203 565.83301 1480
613.02698 529.40601 1482
616.40802 529.40601 1482
526.08801 539.38898 1366
551.58398 557.19397 1391
501.12399 518.823 1345
502.65799 518.823 1345
615.17902 560.55603 1475
616.86102 560.55603 1475
681.71399 541.54901 1566
683.5 541.54901 1566
685.28601 541.54901 1566
540.68298 507.41901 1425
542.30902 507.41901 1425
545.64398 541.74298 1388
614.76202 534.95502 1474
654.323 556.48499 1519
656.05499 556.48499 1519
657.78802 556.48499 1519
686.06702 552.19897 1576
673.70697 560.48199 1564
539.74902 540.591 1377
585.34399 518.55402 1447
579.28699 549.21002 1428
686.44 557.55701 1581
597.67401 535.237 1461
602.67401 535.237 1461
606.00702 535.237 1461
646.04602 553.10199 1524
658.21503 553.10199 1524
466.45001 526.93103 1308
601.71802 516.81 1475
596.823 542.64502 1463
564.32898 584.56299 1415
662.534 554.98102 1534
613.02698 573.35999 1482
501.98099 528.60498 1331
538.16699 564.216 1381
536.68201 511.88 1406
538.28601 511.88 1406
533.48999 537.45001 1369
546.03699 567.48401 1389
533.79102 552.02899 1386
537.13702 513.98901 1403
489.909 525.42798 1323
491.418 525.42798 1323
492.927 525.42798 1323
535.03699 584.57202 1377
536.60797 584.57202 1377
546.03198 584.57202 1377
550.745 584.57202 1377
552.315 584.57202 1377
553.88599 584.57202 1377
535.98901 516.08398 1400
570.37799 582.56702 1418
577.94202 537.617 1445
533.24701 518.16498 1397
579.18903 520.77301 1444
534.84003 483.10599 1397
536.43402 483.10599 1397
561.94299 574.021 1405
560.70398 550.27802 1414
562.31702 550.27802 1414
563.92999 550.27802 1414
525.71198 583.64398 1353
527.255 583.64398 1353
495.535 520.62201 1330
513.133 461.659 1390
514.71899 461.659 1390
536.60303 584.14899 1365
541.49402 529.52197 1406
544.70099 529.52197 1406
616.492 521.146 1507
618.211 521.146 1507
547.62201 550.05499 1389
526.79999 559.034 1376
629.513 562.66302 1485
631.20697 562.66302 1485
615.33899 578.61298 1500
617.04999 578.61298 1500
548.80499 565.534 1392
642.70398 573.09802 1508
464.66699 513.026 1303
466.15302 513.026 1303
578.06299 583.82599 1429
500.84399 487.539 1378
502.41599 487.539 1378
505.56 487.539 1378
701.11298 563.55298 1598
502.89001 489.61499 1375
557.94299 549.198 1403
574.41602 578.53497 1424
587.367 515.37701 1452
589.02301 515.37701 1452
586.61102 592.427 1442
588.25598 592.427 1442
589.901 592.427 1442
574.698 522.979 1441
590.70398 588.28601 1448
598.95001 591.53601 1456
514.90802 531.16901 1353
501.59 526.75299 1334
549.02502 516.03998 1413
477.89499 528.35303 1319
479.39999 528.35303 1319
529.98602 532.375 1364
531.54199 532.375 1364
532.59399 560.33801 1387
590.23999 539.67798 1455
578.47498 571.23401 1422
546.25098 518.16101 1410
586.11401 532.30603 1453
657.836 557.61603 1556
549.987 546.06598 1395
504.82599 497.819 1376
506.39499 497.819 1376
613.39899 570.20599 1487
494.04501 523.59399 1326
545.08899 520.26898 1407
514.12402 547.41101 1355
515.66901 547.41101 1355
507.26099 528.02802 1345
519.56201 517.24701 1386
617.28003 533.99701 1476
570.22101 525.17102 1438
648.28601 569.82001 1513
502.284 519.96997 1344
540.72302 522.36298 1404
578.05798 565.99298 1417
579.67401 565.99298 1417
505.659 464.181 1374
498.405 460.25699 1367
499.965 460.25699 1367
501.52399 460.25699 1367
670.06403 549.396 1568
671.85303 549.396 1568
675.42999 549.396 1568
509.811 468.121 1381
528.16199 513.13501 1392
526.68402 477.85901 1405
524.146 540.55103 1365
549.58099 506.50299 1427
543.87 493.33499 1408
543.25897 558.37903 1390
519.14301 529.25299 1356
520.69 529.25299 1356
677.58398 554.73602 1573
695.28497 567.24103 1593
697.10199 567.24103 1593
558.34998 508.41299 1437
559.98901 508.41299 1437
593.52698 519.526 1459
519.75299 476.04999 1395
571.06598 517.888 1436
572.70398 517.888 1436
569.03101 527.349 1435
568.33398 559.60199 1401
565.41803 548.34802 1430
567.04901 548.34802 1430
568.67999 548.34802 1430
564.23102 550.453 1427
536.487 556.40601 1393
480.90399 537.38098 1319
482.409 537.38098 1319
513.38599 534.21503 1349
537.44501 511.00201 1408
539.052 511.00201 1408
540.65802 511.00201 1408
542.26398 511.00201 1408
543.87 511.00201 1408
528.37 585.71698 1376
529.94 585.71698 1376
617.68103 530.73798 1481
583.28998 519.84497 1446
495.16199 521.74701 1329
659.33197 558.33899 1568
661.12097 558.33899 1568
510.686 542.31097 1350
512.22601 542.31097 1350
561.93597 580.47699 1409
553.81201 522.34998 1417
506.50699 547.159 1343
508.03799 547.159 1343
557.573 501.15799 1435
539.50598 513.11902 1405
583.69397 536.71002 1447
617.703 556.59998 1469
619.37903 556.59998 1469
519.47601 523.49597 1390
521.06097 523.49597 1390
522.64697 523.49597 1390
542.40802 510.85699 1421
558.617 510.85699 1421
593.12 529.14801 1458
594.78302 529.14801 1458
522.22601 535.46802 1360
525.36401 521.448 1393
528.54199 521.448 1393
495.48901 456.83801 1385
497.069 456.83801 1385
617.28003 569.35498 1476
538.94598 563.45502 1383
566.755 551.5 1413
521.71802 501.87 1396
540.89398 551.24298 1388
574.81897 587.06897 1425
576.44501 587.06897 1425
563.78601 522.24902 1430
515.34802 484.353 1396
632.42102 593.88098 1504
685.24597 548.30499 1570
518.81201 510.185 1384
505.81601 484.57501 1383
511.065 524.21899 1351
556.35199 569.974 1399
654.30798 554.47601 1523
587.83197 555.74902 1445
589.47998 555.74902 1445
517.89001 506.05499 1390
550.79102 594.41998 1389
468.65701 526.242 1310
608.90997 531.10303 1468
514.52802 532.31897 1352
506.293 486.672 1380
614.68103 527.44501 1486
632.68201 526.60303 1538
663.65399 560.08301 1553
572.46002 507.095 1452
574.11603 507.095 1452
553.14001 503.37701 1432
531.47998 548.065 1380
645.99902 551.06702 1528
514.90802 540.42902 1353
540.53302 583.84802 1379
623.93701 590.72198 1496
625.64398 590.72198 1496
551.58398 549.26099 1391
553.03003 515.15698 1415
526.48798 533.53998 1363
503.819 503.09399 1369
496.28 519.88599 1332
618.11603 533.03497 1478
596.48199 587.44397 1450
598.13599 587.44397 1450
550.63702 490.25101 1413
586.21698 578.89899 1437
592.36798 576.82202 1440
594.01099 576.82202 1440
587.771 524.01898 1453
590.29602 589.53003 1447
474.58499 532.34601 1314
476.08401 532.34601 1314
508.41699 529.16901 1344
653.02002 574.19 1520
601.83002 596.04797 1463
603.49902 596.04797 1463
605.16699 596.04797 1463
574.29901 524.258 1440
524.94299 582.961 1355
526.48901 582.961 1355
528.03302 583.44598 1367
501.91101 521.11499 1343
625.28302 558.70203 1479
626.96997 558.70203 1479
504.24399 534.03802 1337
505.76901 534.03802 1337
559.797 526.55499 1424
542.10101 546.10199 1383
537.586 490.53201 1400
539.18298 490.53201 1400
569.979 569.22998 1413
518.76099 530.40802 1355
598.492 525.95697 1463
497.573 459.36899 1369
499.134 459.36899 1369
537.26898 505.82901 1416
544.70099 521.50299 1406
576.034 567.20801 1416
521.89502 516.40997 1388
589.83398 540.96503 1454
639.08698 521.95001 1545
640.849 521.95001 1545
642.61102 521.95001 1545
528.466 510.19699 1397
544.453 559.56201 1389
526.19598 514.35303 1391
506.15601 457.60901 1397
507.75 457.60901 1397
509.34299 457.60901 1397
510.93701 457.60901 1397
528.92102 512.28198 1394
473.02301 538.47699 1318
474.526 538.47699 1318
476.03 538.47699 1318
477.53299 538.47699 1318
479.03601 538.47699 1318
605.14899 540.78198 1467
606.82202 540.78198 1467
544.85797 544.12402 1386
569.82501 526.44501 1437
567.78998 535.90601 1436
569.42798 535.90601 1436
614.68103 571.51703 1486
581.59601 526.245 1450
612.61298 566.21503 1481
526.30902 479.121 1404
511.104 507.23599 1376
536.13 507.98099 1413
537.38702 566.54498 1379
508.01501 527.27698 1347
613.91199 560.93597 1476
559.01001 519.32703 1422
663.42603 560.841 1565
543.67102 586.85999 1375
553.56799 557.59497 1392
555.15601 557.59497 1392
583.65198 543.15997 1451
549.85699 483.11899 1411
568.63501 528.617 1434
536.59998 510.12 1410
543.034 510.12 1410
544.64203 510.12 1410
508.24899 459.80701 1394
527.62903 581.59998 1370
529.19202 581.59998 1370
671.604 559.03101 1555
648.27002 576.51801 1517
605.49402 517.16101 1476
607.177 517.16101 1476
656.90698 553.46503 1525
554.59399 521.46899 1419
599.75098 535.60303 1462
601.41803 535.60303 1462
593.12 520.83301 1458
539.56799 481.293 1401
541.16602 481.293 1401
665.52197 557.198 1545
477.17099 530.55701 1317
478.673 530.55701 1317
654.211 555.34302 1535
661.21503 555.34302 1535
543.17102 509.953 1423
544.79401 509.953 1423
520.29199 536.625 1359
540.27399 512.24402 1407
541.87903 512.24402 1407
462.327 527.33398 1309
463.82001 527.33398 1309
465.31299 527.33398 1309
564.30902 555.61401 1395
565.90002 555.61401 1395
600.53699 522.72998 1468
628.63599 539.16602 1495
609.68597 524.60498 1478
567.95801 584.97601 1416
569.573 584.97601 1416
609.73999 530.15002 1470
523.39899 522.66199 1392
535.758 552.42798 1387
543.66901 552.42798 1387
528.84399 483.452 1398
530.43903 483.452 1398
532.034 483.452 1398
533.62799 483.452 1398
509.147 525.37097 1350
548.01599 567.89301 1390
554.35999 571.16101 1398
622.06097 521.492 1508
540.00702 588.703 1398
567.55701 550.66699 1415
521.34399 503.10101 1395
557.43799 548.599 1418
559.05499 548.599 1418
567.14301 548.599 1418
570.37799 548.599 1418
655.61499 573.21002 1522
657.35101 573.21002 1522
543.48401 529.89899 1407
520.22302 505.19501 1392
587.72699 530.448 1457
591.05103 530.448 1457
519.56201 509.34201 1386
519.10199 507.27499 1389
640.99902 568.146 1504
526.10101 534.70203 1362
563.39203 523.51398 1429
519.505 552.94 1361
611.81403 570.65198 1475
549.60199 550.45099 1390
500.32999 504.28699 1368
501.89099 504.28699 1368
540.78699 502.75299 1421
542.40802 502.75299 1421
534.98602 562.69 1385
536.56598 562.69 1385
538.14502 562.69 1385
559.94202 549.58899 1404
561.54303 549.58899 1404
604.263 519.46997 1473
558.745 569.19098 1401
600.98102 525.00403 1465
633.71503 595.20001 1503
635.42902 595.20001 1503
664.27399 559.77002 1567
682.14899 559.77002 1567
683.93701 559.77002 1567
552.75403 504.65799 1431
691.35602 556.80902 1584
467.94199 519.47101 1308
536.97998 547.28302 1382
590.315 578.06299 1439
561.54797 506.54099 1441
577.65802 576.90198 1428
476.75201 528.75403 1320
615.96198 528.784 1485
584.85901 532.672 1454
522.83899 474.22299 1399
524.435 474.22299 1399
553.56702 563.974 1396
528.758 507.22501 1402
544.06097 560.742 1388
584.05402 525.315 1452
572.25897 525.53601 1439
495.931 523.98901 1327
687.979 544.42603 1564
689.763 544.42603 1564
529.22302 509.332 1399
544.46503 545.31201 1385
542.711 522.73499 1405
544.31403 522.73499 1405
651.55701 554.31299 1537
667.336 554.31299 1537
524.23199 515.56799 1390
534.01001 526.88599 1399
536.75403 524.81702 1402
529.67999 511.42401 1396
606.31403 516.17499 1478
608 516.17499 1478
669.03699 555.08899 1574
670.83301 555.08899 1574
679.81 555.08899 1574
536.88898 507.086 1415
650.85699 575.54498 1519
558.50201 497.43301 1429
510.733 508.436 1375
598.08301 527.26501 1462
522.62201 529.64301 1357
524.16998 529.64301 1357
616.336 525.46503 1490
535.052 582.73798 1369
505.79401 458.87399 1396
685.57202 560.45398 1579
548.40997 558.78101 1391
549.99701 558.78101 1391
545.64398 543.32599 1388
608.823 523.62701 1480
603.03198 521.76599 1470
528.81403 582.27301 1357
571.06598 527.716 1436
511.84698 506.40201 1378
536.53101 586.49701 1389
538.11499 586.49701 1389
601.39099 542.086 1466
638.95203 522.80103 1532
640.69897 522.80103 1532
501.98099 530.12299 1331
542.30902 509.04401 1425
543.93402 509.04401 1425
545.56 509.04401 1425
547.185 509.04401 1425
610.56897 529.19202 1472
556.99597 520.58301 1421
533.48297 562.513 1373
613.888 567.521 1480
617.26398 567.521 1480
618.95203 567.521 1480
568.44501 503.35001 1446
570.09399 503.35001 1446
560.724 556.80603 1394
615.17902 562.23901 1475
581.59601 544.43903 1450
583.25 544.43903 1450
633.383 526.32098 1527
635.125 526.32098 1527
636.86603 526.32098 1527
559.59998 501.50699 1436
530.367 539.01202 1369
566.99902 520.43799 1434
568.63501 520.43799 1434
508.37701 480.686 1390
564.32898 586.177 1415
565.94299 586.177 1415
546.03699 569.06897 1389
550.90002 511.21701 1422
612.57397 520.31403 1485
694.41199 561.08398 1591
654.323 558.21802 1519
656.05499 558.21802 1519
657.78802 558.21802 1519
463.17999 514.51202 1303
464.66699 514.51202 1303
466.15302 514.51202 1303
510.646 514.63397 1379
535.98901 517.68103 1400
596.823 544.31403 1463
603.401 518.49298 1475
605.08398 518.49298 1475
527.26001 585.70599 1365
683.5 543.336 1566
685.28601 543.336 1566
534.84003 484.70001 1397
536.43402 484.70001 1397
561.94299 575.62402 1405
682.09802 548.65503 1571
683.89001 548.65503 1571
513.133 463.24399 1390
514.71899 463.24399 1390
616.013 569.74103 1477
522.94 547.21899 1370
566.74298 549.82898 1417
569.56299 547.75299 1420
574.422 547.75299 1420
557.83099 513.37598 1419
520.31097 508.49301 1388
546.03699 551.64001 1389
477.89499 529.85797 1319
479.39999 529.85797 1319
512.98499 524.60699 1352
548.80499 567.12201 1392
503.112 528.27502 1334
577.14203 531.935 1443
564.74902 573.64099 1408
578.06299 585.45599 1429
593.12 539.12701 1458
550.784 589.54797 1385
507.867 461.48599 1380
569.573 576.90002 1416
585.66302 531.74402 1456
587.32397 531.74402 1456
578.38702 515.117 1442
580.03198 515.117 1442
574.41602 580.159 1424
593.93402 546.52899 1460
495.55701 525.10699 1326
529.98602 533.93103 1364
531.54199 533.93103 1364
629.513 564.35699 1485
631.20697 564.35699 1485
655.18402 574.56799 1521
551.57898 565.16199 1395
515.66901 548.95599 1355
587.367 517.03302 1452
589.02301 517.03302 1452
504.82599 499.388 1376
506.39499 499.388 1376
541.31403 589.13898 1373
553.16998 547.65698 1395
554.76099 547.65698 1395
600.57098 526.31598 1464
603.85303 520.79602 1472
529.979 508.46201 1401
510.07599 518.828 1386
511.65701 518.828 1386
529.97101 583.39099 1356
581.32098 570.81403 1425
546.69397 521.87402 1407
565.55103 566.40997 1406
509.811 469.69699 1381
520.69 530.79999 1356
530.43903 510.56201 1398
539.12201 523.96399 1404
540.72302 523.96399 1404
542.32501 523.96399 1404
543.92603 523.96399 1404
559.14398 563.18799 1398
528.16199 514.72198 1392
534.77301 526.04102 1401
502.71899 526.41302 1337
508.79401 509.634 1374
513.97803 473.66101 1388
546.43103 559.96503 1390
571.86102 526.81097 1438
573.50201 526.81097 1438
480.90399 538.88501 1319
482.409 538.88501 1319
688.73798 552.89899 1578
547.953 508.13101 1427
607.95502 566.59802 1482
609.646 566.59802 1482
611.336 566.59802 1482
621.479 566.59802 1482
670.99597 561.19897 1566
630.401 525.87299 1541
632.15802 525.87299 1541
633.91602 525.87299 1541
612.64301 561.31598 1477
511.01599 505.56299 1380
505.431 460.13699 1395
551.85797 483.46201 1412
504.94199 519.59399 1347
506.479 519.59399 1347
508.01501 519.59399 1347
471.58701 524.85101 1314
496.67801 523.263 1329
513.23798 501.43701 1386
646.56 571.54602 1513
585.711 543.534 1452
546.04303 592.57098 1381
540.20001 510.48099 1411
541.81 510.48099 1411
571.06598 519.526 1436
570.66803 528.98602 1435
659.61102 559.39099 1556
565.41803 549.979 1430
567.04901 549.979 1430
541.25403 557.995 1393
542.84302 557.995 1393
557.14398 557.995 1393
604.21899 517.51099 1477
597.67401 528.57098 1461
633.33197 561.15802 1490
528.37 587.28699 1376
529.94 587.28699 1376
595.19098 521.19 1459
544.06097 570.242 1388
656.38898 555.70502 1536
546.802 510.311 1424
556.54797 510.311 1424
558.172 510.311 1424
508.81201 532.57703 1341
543.87 512.60797 1408
602.62201 523.086 1469
602.65198 543.38702 1465
604.32397 543.38702 1465
551.974 573.52899 1396
538.961 582.02502 1371
550.685 485.64899 1409
540.47699 585.755 1391
542.06299 585.755 1391
543.65002 585.755 1391
545.237 585.755 1391
502.31799 524.53699 1340
671.85303 551.18402 1568
508.01099 481.92401 1389
526.03101 483.798 1399
527.62701 483.798 1399
539.50598 514.72101 1405
468.65701 527.737 1310
563.12097 556.01202 1396
504.25601 529.39899 1333
532.69098 561.76398 1375
495.48901 458.418 1385
497.069 458.418 1385
525.36401 523.03699 1393
526.953 523.03699 1393
555.93597 502.79501 1435
557.573 502.79501 1435
672.20099 556.53003 1573
559.94202 576.81598 1404
538.354 516.82098 1402
620.75299 521.83801 1509
624.19501 521.83801 1509
625.91699 521.83801 1509
558.617 512.47803 1421
560.23798 512.47803 1421
531.27301 520.979 1396
506.914 484.04501 1386
514.53699 513.80603 1381
580.39203 538.36102 1447
582.04303 538.36102 1447
583.69397 538.36102 1447
488.41901 448.508 1374
489.98599 448.508 1374
491.55301 448.508 1374
511.065 525.76001 1351
542.47803 552.82599 1388
545.64398 552.82599 1388
514.52802 533.86102 1352
518.81201 511.76401 1384
566.354 580.10199 1412
507.39401 486.15302 1383
659.52002 573.586 1523
550.79102 596.00403 1389
552.375 596.00403 1389
579.59003 531.02399 1445
569.573 551.05603 1416
586.46802 530.81201 1458
589.79401 530.81201 1458
593.12 530.81201 1458
594.78302 530.81201 1458
565.92401 548.98602 1419
569.16199 548.98602 1419
572.39899 548.98602 1419
507.867 488.24701 1380
595.599 538.20099 1460
556.35199 571.57001 1399
550.38702 590.70099 1384
514.90802 541.97302 1353
516.45099 541.97302 1353
507.02701 460.578 1382
529.90601 549.64001 1380
557.43799 514.63098 1418
544.41101 503.10599 1422
617.28003 571.039 1476
618.96301 571.039 1476
503.819 504.65601 1369
538.573 536.27899 1374
551.58398 550.84698 1391
597.23102 517.966 1464
620.05902 520.09003 1499
603.06403 525.36298 1466
574.01202 581.375 1423
504.24399 535.56299 1337
505.76901 535.56299 1337
572.46002 508.75101 1452
574.11603 508.75101 1452
546.40997 580.164 1374
547.97699 580.164 1374
630.70502 595.59601 1504
632.42102 595.59601 1504
528.03302 585.005 1367
517.41901 470.60001 1393
530.26703 505.465 1406
531.87097 505.465 1406
576.742 533.211 1442
538.94598 547.67902 1383
554.36401 548.85498 1394
627.42401 522.51801 1521
678.23102 558.33197 1558
592.77698 583.77002 1445
614.224 518.31799 1489
615.922 518.31799 1489
617.62097 518.31799 1489
584.57703 580.53802 1437
592.36798 578.46503 1440
594.01099 578.46503 1440
588.58002 533.039 1455
590.23999 533.039 1455
473.02301 539.97998 1318
474.526 539.97998 1318
476.03 539.97998 1318
477.53299 539.97998 1318
479.03601 539.97998 1318
590.29602 591.17999 1447
573.20599 574.07397 1421
547.47101 521.00897 1409
678.08197 550.09601 1570
574.29901 525.901 1440
555.55701 564.37799 1397
647.00098 565.245 1510
600.16101 597.71698 1463
601.83002 597.71698 1463
603.49902 597.71698 1463
605.16699 597.71698 1463
546.30499 523.10699 1406
572.25897 535.38501 1439
531.65302 529.32001 1397
533.24701 529.32001 1397
526.19598 515.93903 1391
538.73798 525.19202 1403
540.33801 525.19202 1403
507.75 459.203 1397
509.34299 459.203 1397
510.93701 459.203 1397
512.53003 459.203 1397
509.552 528.81299 1347
521.03198 551.45099 1365
504.56699 520.74402 1346
567.96198 565.60999 1408
589.83398 542.62402 1454
605.12097 522.12097 1471
524.70801 480.72198 1404
526.30902 480.72198 1404
573.94202 546.992 1435
575.57898 546.992 1435
577.216 546.992 1435
587.367 535.25201 1452
508.43201 533.70801 1340
477.17099 532.05902 1317
478.673 532.05902 1317
573.10303 528.08398 1437
537.742 509.59299 1413
651.68903 581.29797 1525
463.82001 528.82703 1309
465.31299 528.82703 1309
511.75601 504.71899 1382
600.12799 542.45502 1467
603.47498 542.45502 1467
605.14899 542.45502 1467
606.82202 542.45502 1467
542.453 559.18298 1392
551.97998 559.18298 1392
540.14099 542.55499 1378
549.19598 509.401 1426
529.19202 583.16302 1370
530.75403 583.16302 1370
532.31702 583.16302 1370
533.88 583.16302 1370
540.13098 583.16302 1370
546.25098 511.728 1410
639.08698 523.71301 1545
640.849 523.71301 1545
642.61102 523.71301 1545
526.78302 482.89099 1401
528.38098 482.89099 1401
531.57703 482.89099 1401
539.56799 482.89099 1401
541.16602 482.89099 1401
499.36801 457.49799 1387
568.63501 530.25299 1434
613.91199 562.62 1476
617.28003 562.62 1476
541.87903 513.849 1407
509.147 526.91101 1350
552.90997 511.57599 1423
554.534 511.57599 1423
540.133 566.20099 1382
597.26501 529.87402 1460
593.12 522.49597 1458
507.64499 483.16101 1388
539.12201 515.95697 1404
603.086 537.271 1462
526.57501 524.25 1392
527.25 485.047 1398
530.43903 485.047 1398
532.034 485.047 1398
533.62799 485.047 1398
594.70203 517.00098 1466
596.375 517.00098 1466
598.047 517.00098 1466
508.12799 485.276 1385
533.62799 520.13 1398
554.35999 572.75598 1398
623.06299 529.995 1498
624.771 529.995 1498
684.703 554.34802 1577
574.41602 546.04797 1424
611.42499 552.11902 1466
613.09698 552.11902 1466
614.77002 552.11902 1466
609.68597 526.29102 1478
520.22302 506.78299 1392
503.06799 523.789 1342
568.34302 548.13898 1421
571.58502 548.13898 1421
573.20599 548.13898 1421
569.17102 552.28101 1415
557.43799 550.21698 1418
559.05499 550.21698 1418
565.52502 550.21698 1418
568.76001 550.21698 1418
570.37799 550.21698 1418
536.99597 586.13501 1366
652.46002 557.09399 1535
654.211 557.09399 1535
655.96198 557.09399 1535
548.01599 552.03699 1390
549.60199 552.03699 1390
686.87402 559.71503 1582
541.30499 564.27002 1385
579.18903 532.30298 1444
555.42798 515.88501 1417
558.745 570.789 1401
582.08002 515.474 1443
563.39203 525.14398 1429
584.40302 532.10999 1457
589.38898 532.10999 1457
591.05103 532.10999 1457
592.71301 532.10999 1457
540.78699 504.37399 1421
542.40802 504.37399 1421
590.23999 524.73999 1455
624.83398 535.66302 1490
549.41302 518.01801 1414
553.966 550.04999 1393
560.32202 550.04999 1393
561.91101 550.04999 1393
556.323 549.159 1407
528.81702 534.323 1365
610.13098 572.33398 1475
611.81403 572.33398 1475
613.49597 572.33398 1475
618.54401 572.33398 1475
620.22601 572.33398 1475
621.909 572.33398 1475
657.35101 574.94598 1522
531.492 506.70801 1405
517.047 471.85001 1392
552.75403 506.29099 1431
638.86798 564.54797 1499
589.07202 585.013 1444
590.71899 585.013 1444
506.02701 466.08701 1375
522.83899 475.819 1399
500.32999 462.15399 1368
501.89099 462.15399 1368
553.56702 565.56702 1396
588.67401 579.70502 1439
548.24799 520.13898 1411
535.01599 584.69501 1381
536.14502 562.32599 1388
537.72803 562.32599 1388
539.31097 562.32599 1388
544.06097 562.32599 1388
561.54797 508.185 1441
525.26898 555.84399 1372
511.46799 546.12 1348
597.69897 593.604 1457
516.77197 519.20203 1387
575.94202 517.68799 1440
611.81403 528.58801 1475
524.23199 517.15399 1390
531.27301 513.01703 1396
545.91699 524.33801 1405
588.17603 534.33099 1454
534.01001 528.48199 1399
629.40802 534.18903 1505
631.12402 534.18903 1505
522.62201 531.19098 1357
549.966 508.487 1428
561.14001 563.59003 1399
507.38599 460.466 1396
639.60498 526.21399 1542
666.06201 561.55798 1567
667.849 561.55798 1567
683.93701 561.55798 1567
534.13 560.36798 1391
543.65002 560.36798 1391
535.03699 543.73199 1377
513.41901 507.974 1378
617.698 536.04401 1477
512.961 505.92899 1381
689.54999 558.61499 1584
514.71899 499.71301 1390
516.30402 499.71301 1390
580.08502 548.24597 1434
581.72101 548.24597 1434
606.31403 561.69598 1478
608 561.69598 1478
609.68597 561.69598 1478
611.37201 561.69598 1478
619.802 561.69598 1478
621.48798 561.69598 1478
646.57202 566.59198 1509
538.97198 510.84299 1412
550.24701 510.84299 1412
510.30801 528.06 1349
567.14099 561.60101 1402
599.75098 528.93201 1462
586.96198 536.539 1451
513.76599 536.151 1350
658.57001 556.06598 1537
660.323 556.06598 1537
667.336 556.06598 1537
669.08899 556.06598 1537
556.99597 522.20398 1421
548.81097 510.67001 1425
550.43701 510.67001 1425
535.28198 558.396 1394
538.46198 558.396 1394
540.052 558.396 1394
559.13397 558.396 1394
616.336 527.16498 1490
601.39099 543.758 1466
687.979 546.21002 1564
689.763 546.21002 1564
571.56 559.59698 1405
524.81 484.14401 1400
539.18298 484.14401 1400
540.78003 484.14401 1400
612.24799 530.87097 1472
554.203 524.336 1418
510.646 516.20801 1379
568.44501 505 1446
670.83301 556.88397 1574
674.42297 556.88397 1574
676.21899 556.88397 1574
566.99902 522.07397 1434
560.72601 582.49701 1410
638.95203 524.54901 1532
640.69897 524.54901 1532
528.92102 523.41302 1394
535.98901 519.27802 1400
619.789 532.78699 1482
516.48602 514.17798 1382
536.224 538.62799 1372
509.34 486.504 1384
534.64801 562.17297 1376
546.69397 488.16901 1407
528.43201 582.00897 1360
529.98297 582.00897 1360
539.70001 553.224 1389
547.62201 553.224 1389
549.20599 553.224 1389
572.38898 547.28699 1423
635.125 528.06201 1527
636.86603 528.06201 1527
612.57397 522.008 1485
495.55701 526.61902 1326
561.46399 549.37299 1420
498.173 521.797 1333
505.75 505.02499 1370
638.67297 525.13501 1544
640.43402 525.13501 1544
642.19501 525.13501 1544
677.65002 560.48499 1569
679.44 560.48499 1569
681.22998 560.48499 1569
694.039 557.51202 1586
616.013 571.42499 1477
564.74902 575.24701 1408
502.159 459.14499 1373
553.56799 551.24298 1392
555.15601 551.24298 1392
551.80603 517.13599 1416
515.66901 550.50201 1355
503.81699 523.03601 1344
624.354 531.349 1497
578.06299 587.08698 1429
579.69299 587.08698 1429
562.99799 526.40503 1428
563.94702 550.37201 1406
541.31403 590.70502 1373
542.88 590.70502 1373
540.505 563.50299 1387
543.66901 563.50299 1387
551.57898 566.75299 1395
578.38702 516.76202 1442
580.03198 516.76202 1442
529.97101 584.93799 1356
531.11401 507.94901 1404
549.02502 519.26398 1413
555.50702 548.33197 1409
516.67603 473.09799 1391
556.35303 549.24902 1395
540.914 548.07501 1384
517.59698 532.34698 1356
687.073 545.12201 1566
586.51703 526.03802 1454
680.30603 550.44702 1571
505.659 467.31601 1374
510.07599 520.409 1386
511.65701 520.409 1386
513.23798 520.409 1386
587.01801 586.25403 1443
552.36798 507.56799 1430
553.99902 507.56799 1430
480.90399 540.39001 1319
482.409 540.39001 1319
649.90997 553.172 1529
531.57703 510.06 1401
592.35602 591.58899 1448
508.23599 471.272 1381
509.811 471.272 1381
589.02301 518.68903 1452
646.78497 549.73199 1534
589.08502 573.58197 1436
532.034 512.15698 1398
505.659 511.20099 1374
471.58701 526.34998 1314
528.16199 516.31 1392
530.89203 514.23999 1395
542.32501 525.56598 1404
543.92603 525.56598 1404
552.76501 547.24103 1398
497.771 519.92297 1336
531.50897 544.90698 1376
557.54901 564.78198 1398
500.80899 455.64401 1391
502.39499 455.64401 1391
618.86499 526.17102 1492
536.91699 561.54999 1390
538.50299 561.54999 1390
543.25897 561.54999 1390
546.43103 561.54999 1390
529.09698 558.31799 1382
600.57098 527.98602 1464
602.24103 527.98602 1464
562.20898 519.16101 1426
528.28699 481.065 1405
688.24402 561.164 1581
656.91901 576.30298 1521
513.04602 509.17599 1377
506.479 521.13098 1347
609.75299 535.396 1466
611.42499 535.396 1466
513.38599 537.29303 1349
544.57501 509.95401 1414
514.164 507.13699 1380
655.59698 581.67902 1526
513.23798 503.01801 1386
613.08002 529.91101 1474
553.966 559.58398 1393
467.16299 529.23102 1310
468.65701 529.23102 1310
525.56 483.23599 1402
530.35699 483.23599 1402
543.15198 483.23599 1402
549.85699 512.091 1411
542.47803 571.82599 1388
544.06097 571.82599 1388
502.78 481.60101 1379
607.95502 568.28802 1482
616.40802 568.28802 1482
621.479 568.28802 1482
585.711 545.19 1452
587.367 545.19 1452
543.87 514.21399 1408
612.64301 563.00098 1477
556.54797 511.936 1424
531.14398 583.13202 1359
540.47699 587.34198 1391
542.06299 587.34198 1391
543.65002 587.34198 1391
601.00702 530.237 1461
602.67401 530.237 1461
532.70599 539.79901 1371
522.55902 549.94299 1369
659.95001 557.62701 1561
563.12097 557.60498 1396
598.492 537.638 1463
600.16101 537.638 1463
601.83002 537.638 1463
549.078 487.25601 1409
526.03101 485.39401 1399
529.22302 485.39401 1399
504.96799 459.99799 1385
524.435 502.948 1399
525.36401 524.62598 1393
528.54199 524.62598 1393
488.41901 450.07501 1374
489.98599 450.07501 1374
491.55301 450.07501 1374
509.811 515.38098 1381
512.961 515.38098 1381
497.79999 522.92499 1332
630.401 527.63 1541
632.15802 527.63 1541
599.31 545.05798 1465
602.65198 545.05798 1465
604.32397 545.05798 1465
531.39502 554.409 1388
544.06097 554.409 1388
600.94598 524.76202 1469
602.62201 524.76202 1469
604.29797 524.76202 1469
474.16599 524.547 1317
475.668 524.547 1317
521.71802 505.05499 1396
518.81201 513.34302 1384
566.40399 506.29901 1445
555.93597 504.43201 1435
611.83301 532.18903 1471
564.74298 581.71301 1412
514.349 466.07999 1389
515.93298 466.07999 1389
615.15997 570.51202 1479
524.93298 536.65002 1363
578.742 540.01202 1447
540.65802 531.88202 1408
500.69601 506.21799 1369
502.258 506.21799 1369
503.819 506.21799 1369
567.12097 548.52502 1422
578.47498 548.52502 1422
466.806 521.36102 1309
468.29901 521.36102 1309
561.06799 550.60498 1419
564.30603 550.60498 1419
571.18201 585.00897 1420
532.28198 561.41803 1378
544.41101 504.728 1422
506.48801 504.19699 1372
594.78302 532.47498 1458
601.43597 532.47498 1458
622.474 523.55902 1509
625.91699 523.55902 1509
626.51202 586.52301 1494
543.27698 564.677 1386
546.40997 581.73102 1374
547.97699 581.73102 1374
551.18298 567.93701 1394
471.228 527.44702 1313
597.13599 514.08002 1472
598.815 514.08002 1472
534.21301 549.25702 1383
547.34601 481.94101 1417
548.96301 481.94101 1417
550.57898 481.94101 1417
553.81201 481.94101 1417
555.42798 481.94101 1417
659.52002 575.32397 1523
555.95398 550.44501 1394
597.23102 519.63599 1464
603.06403 527.03497 1466
572.46002 510.40799 1452
574.11603 510.40799 1452
575.09698 534.85602 1442
532.336 509.18701 1403
511.08801 530.34998 1347
610.58502 534.45203 1468
504.56699 522.27899 1346
530.64398 480.14499 1407
553.16199 590.40002 1387
554.74402 590.40002 1387
518.72803 519.57703 1388
520.31097 519.57703 1388
586.61102 587.49298 1442
613.91199 528.94598 1476
563.54602 569.21301 1405
532.79498 511.293 1400
521.03198 553.008 1365
541.284 562.73102 1389
542.86902 562.73102 1389
531.65302 530.91302 1397
533.24701 530.91302 1397
534.84003 530.91302 1397
590.23999 534.69897 1455
526.19598 517.526 1391
533.82703 585.11798 1382
536.97998 585.11798 1382
540.133 585.11798 1382
582.54303 576.88501 1432
544.85797 547.28601 1386
463.82001 530.32001 1309
465.31299 530.32001 1309
532.79498 528.85901 1400
530.51099 515.46198 1394
691.41302 553.59998 1580
510.93701 460.79599 1397
623.93701 532.70099 1496
511.104 510.37601 1376
551.98199 508.84299 1429
614.224 520.01703 1489
615.922 520.01703 1489
617.62097 520.01703 1489
523.35498 542.90198 1367
572.25897 537.026 1439
673.64099 561.91602 1568
655.10699 586.09601 1533
656.85602 586.09601 1533
524.70801 482.32401 1404
526.30902 482.32401 1404
527.91101 482.32401 1404
529.51202 482.32401 1404
531.11401 482.32401 1404
532.716 482.32401 1404
534.31702 482.32401 1404
543.92603 482.32401 1404
470.86899 519.56299 1312
472.366 519.56299 1312
540.13098 584.72601 1370
547.62201 545.302 1389
653.89203 552.65601 1518
512.867 504.23499 1385
540.86499 560.771 1392
548.80499 560.771 1392
547.41302 511.20499 1413
552.24902 511.20499 1413
671.12201 560.10999 1558
575.57898 548.62903 1435
573.50201 520.25 1438
601.83002 529.29401 1463
603.49902 529.29401 1463
595.91901 516.38397 1469
597.59497 516.38397 1469
599.271 516.38397 1469
589.83398 544.28302 1454
552.44897 511.02802 1426
615.04901 527.51898 1491
465.02301 516.39502 1304
674.5 551.88702 1570
499.36801 459.07999 1387
656.487 577.65802 1520
658.22101 577.65802 1520
600.12799 544.12903 1467
537.25702 558.797 1395
678.44501 557.23798 1575
541.87903 515.45398 1407
509.228 484.74399 1388
512.59003 516.58197 1380
524.987 525.83698 1392
526.57501 525.83698 1392
528.16199 525.83698 1392
522.99402 537.80902 1362
524.06 504.18301 1398
586.15302 539.10498 1449
602.26099 531.53998 1460
470.86899 528.54199 1312
593.12 524.159 1458
522.271 510.444 1389
521.81097 508.371 1392
539.66498 586.59698 1393
538.18103 582.87402 1373
541.31403 582.87402 1373
542.88 582.87402 1373
546.802 503.814 1424
532.15198 504.043 1411
533.76202 504.043 1411
571.16699 547.672 1424
574.41602 547.672 1424
541.30499 565.84998 1385
538.50299 553.62201 1390
541.67401 553.62201 1390
597.23102 546.35602 1464
598.901 546.35602 1464
569.17102 553.89502 1415
594.70203 518.67401 1466
596.375 518.67401 1466
567.14301 551.83398 1418
571.995 551.83398 1418
555.54901 505.716 1434
565.10101 549.76001 1421
574.82703 549.76001 1421
605.56097 526.07898 1468
676.29102 560.84198 1570
577.94202 524.42999 1445
564.36401 507.59601 1444
611.42499 553.79199 1466
613.09698 553.79199 1466
609.68597 527.97699 1478
611.41699 533.50403 1470
528.81702 535.88 1365
629.98602 523.20502 1523
623.06299 531.70398 1498
557.14398 551.63898 1393
558.73297 551.63898 1393
560.32202 551.63898 1393
561.91101 551.63898 1393
510.70901 531.492 1346
511.46799 547.65802 1348
500.32999 463.715 1368
501.89099 463.715 1368
569.97601 578.92401 1417
526.03497 547.25 1374
592.71301 533.77197 1457
593.52698 541.16101 1459
534.56097 563.909 1388
542.47803 563.909 1388
672.98102 557.23401 1550
674.74902 557.23401 1550
676.51703 557.23401 1550
588.58002 526.40002 1455
620.64099 535.44501 1480
634.55798 544.48901 1505
561.54303 570.409 1404
522.83899 477.41501 1399
519.526 532.73901 1357
515.19 520.784 1387
516.77197 520.784 1387
518.354 520.784 1387
682.90399 556.14697 1577
549.85699 521.74799 1411
504.621 528.33301 1338
540.927 581.008 1376
586.20502 588.729 1441
642.99103 548.24597 1525
534.66101 533.93701 1368
618.54401 574.01703 1475
620.22601 574.01703 1475
621.909 574.01703 1475
613.34802 571.73901 1491
522.64697 518.73999 1390
593.992 589.91101 1452
651.73102 571.32703 1517
624.85199 566.43201 1486
626.547 566.43201 1486
633.19897 523.82501 1535
536.75403 528.01599 1402
545.91699 525.94 1405
547.51898 525.94 1405
564.34802 568.41803 1407
630.73901 539.258 1500
473.44601 526.75098 1315
575.94202 519.33099 1440
653.87903 576.68201 1522
655.61499 576.68201 1522
535.71698 561.95398 1391
540.47699 561.95398 1391
542.06299 561.95398 1391
511.84698 529.599 1349
543.34601 510.314 1415
546.57397 510.314 1415
575.23102 569.62701 1418
589.83398 535.98999 1454
514.71899 501.298 1390
516.30402 501.298 1390
562.40997 502.55499 1439
545.13898 483.58099 1403
511.06299 481.72299 1393
548.63599 512.45398 1412
551.85797 512.45398 1412
586.55798 521.28302 1450
629.40802 535.90503 1505
536.591 568.94202 1381
538.16699 568.94202 1381
580.08502 549.88202 1434
581.72101 549.88202 1434
617.698 537.729 1477
535.28198 559.98602 1394
538.46198 559.98602 1394
540.052 559.98602 1394
541.64203 559.98602 1394
470.51001 529.63501 1311
504.22299 526.45801 1341
571.06598 530.992 1436
556.99597 523.82501 1421
521.05798 538.96698 1361
503.75201 460.32999 1386
506.914 460.32999 1386
510.07599 460.32999 1386
599.75098 530.59998 1462
606.31403 563.38202 1478
608 563.38202 1478
609.68597 563.38202 1478
611.37201 563.38202 1478
619.802 563.38202 1478
586.96198 538.19397 1451
677.65002 544.37701 1569
679.44 544.37701 1569
524.81 485.741 1400
539.18298 485.741 1400
540.78003 485.741 1400
571.56 561.20001 1405
499.26099 518.422 1340
529.97998 560.46503 1368
605.58099 538.00598 1464
510.444 485.97699 1387
541.49402 516.69202 1406
502.258 498.41 1369
503.819 498.41 1369
511.44299 527.69202 1352
644.85101 568.31403 1509
550.776 575.53302 1397
552.36902 575.53302 1397
538.73798 518.78998 1403
560.72601 584.10602 1410
509.34 488.08301 1384
646.98798 573.651 1514
601.39099 545.42999 1466
557.96198 504.78299 1436
566.99902 523.71002 1434
558.73798 578.82898 1405
546.03699 554.80902 1389
522.56097 507.51099 1394
631.63202 557.95599 1486
521.89502 511.66 1388
545.08899 489.77399 1407
546.69397 489.77399 1407
651.91699 554.35699 1542
523.02301 509.59201 1391
580.79303 540.38501 1448
582.44501 540.38501 1448
548.80499 570.29797 1392
542.64899 532.25897 1409
544.25598 532.25897 1409
545.86298 532.25897 1409
613.888 570.89801 1480
571.59198 553.06201 1417
573.20801 553.06201 1417
556.75 573.57501 1400
563.08301 550.99298 1420
572.802 550.99298 1420
574.422 550.99298 1420
550.784 592.70801 1385
687.979 547.99402 1564
689.763 547.99402 1564
603.513 532.84003 1459
596.00702 540.237 1461
551.97998 552.83099 1392
553.56799 552.83099 1392
555.15601 552.83099 1392
556.74402 552.83099 1392
534.24103 561.82599 1379
535.81403 561.82599 1379
637.20398 526.297 1532
638.95203 526.297 1532
640.69897 526.297 1532
552.58502 482.28101 1418
505.76901 529.46301 1337
517.59698 533.89301 1356
672.62799 558.67999 1574
674.42297 558.67999 1574
562.99799 528.034 1428
564.62701 528.034 1428
574.41602 583.40802 1424
558.72101 549.93903 1409
499.29501 521.44702 1336
557.94397 550.84003 1395
559.53497 550.84003 1395
498.194 526.29498 1329
635.883 560.005 1496
637.58899 560.005 1496
612.67603 534.81598 1469
504.09201 512.76801 1374
505.659 512.76801 1374
549.46802 522.987 1410
506.479 522.66699 1347
528.37 546.47699 1376
661.21802 556.914 1564
700.60303 566.43701 1601
702.42902 566.43701 1601
553.99902 509.19901 1430
555.63 509.19901 1430
583.34399 582.58197 1438
555.95398 566.37701 1398
539.26398 509.41901 1417
546.43103 563.13599 1390
530.67401 559.89502 1382
537.52002 527.16699 1404
500.80899 457.23099 1391
502.39499 457.23099 1391
589.08502 575.21997 1436
670.49103 562.27399 1569
545.91699 482.66699 1405
538.94598 585.54199 1383
503.388 478.957 1385
504.96799 478.957 1385
552.35303 546.81702 1401
655.21802 555.12598 1554
515.73798 508.711 1380
518.63501 500.43201 1392
515.28198 506.66199 1383
656.05499 553.02002 1519
657.78802 553.02002 1519
549.41302 511.56699 1414
559.01001 488.508 1422
560.63202 488.508 1422
537.38702 544.52197 1379
554.46503 511.38699 1427
556.09198 511.38699 1427
640.08002 547.745 1514
536.487 561.17297 1393
538.07599 561.17297 1393
539.66498 561.17297 1393
542.84302 561.17297 1393
550.78802 561.17297 1393
658.41101 558.64099 1549
660.17798 558.64099 1549
663.71198 558.64099 1549
687.073 546.90802 1566
609.75299 537.06897 1466
611.42499 537.06897 1466
649.57202 572.67902 1516
501.207 483.17401 1379
502.78 483.17401 1379
510.69601 482.965 1392
542.47803 573.409 1388
544.06097 573.409 1388
543.15198 484.83499 1402
669.55402 552.23901 1571
671.34601 552.23901 1571
676.72198 552.23901 1571
546.638 513.70001 1411
512.60602 528.84302 1351
548.33698 501.97101 1428
549.966 501.97101 1428
560.37903 503.84601 1438
463.89099 516.79102 1305
680.67401 557.59198 1576
529.578 541.36298 1371
474.16599 526.04999 1317
511.17999 485.09299 1389
582.84698 522.57599 1449
543.87 515.82001 1408
556.604 525.07599 1420
561.52899 559.19702 1396
488.41901 451.64301 1374
489.98599 451.64301 1374
491.55301 451.64301 1374
569.42798 522.802 1436
567.39502 532.26001 1435
569.03101 532.26001 1435
457.84698 522.854 1309
459.34 522.854 1309
460.83301 522.854 1309
462.327 522.854 1309
466.806 522.854 1309
541.10797 517.927 1405
619.789 569.979 1482
655.59698 583.41998 1526
657.33801 583.41998 1526
531.27301 524.164 1396
531.39502 555.992 1388
544.06097 555.992 1388
545.64398 555.992 1388
534.01001 522.09802 1399
600.03601 513.44501 1475
601.71802 513.44501 1475
546.82397 571.47498 1391
597.67401 531.90399 1461
599.34003 531.90399 1461
601.00702 531.90399 1461
604.34003 531.90399 1461
521.51898 512.87402 1387
514.349 467.664 1389
515.93298 467.664 1389
571.14301 545.95203 1428
574.40002 545.95203 1428
576.02899 545.95203 1428
504.45901 459.814 1375
520.125 471.61301 1396
521.71802 471.61301 1396
472.72601 528.94501 1313
566.604 524.979 1433
554.75598 574.76099 1399
564.74298 583.32397 1412
540.65802 533.48798 1408
602.65198 546.729 1465
604.32397 546.729 1465
673.138 561.19897 1571
674.92999 561.19897 1571
569.94299 548.05701 1425
558.95599 494.76199 1426
560.58301 494.76199 1426
642.28699 564.33899 1503
537.38898 588.12402 1367
