# .PCD v0.7 - Point Cloud Data file format
VERSION 0.7
FIELDS x y z
SIZE 4 4 4
TYPE F F F
COUNT 1 1 1
WIDTH 2155
HEIGHT 1
VIEWPOINT 0 0 0 1 0 0 0
POINTS 2155
DATA ascii
-246.401 153.957 509
-245.821 153.957 509
-219.981 173.088 494
-219.41701 173.088 494
-218.854 173.088 494
-218.28999 173.088 494
-216.60001 173.088 494
-216.036 173.088 494
-215.47301 173.088 494
-214.34599 173.088 494
-213.21899 173.088 494
-212.655 173.088 494
-212.092 173.088 494
-84.885201 193.804 464
-84.355904 193.804 464
-101.69 204.646 461
-101.164 204.646 461
-208.959 186.015 488
-208.40199 186.015 488
-207.84599 186.015 488
-149.396 150.94501 488
-148.839 150.94501 488
-148.282 150.94501 488
-147.726 150.94501 488
-142.159 150.94501 488
-141.60201 150.94501 488
-141.04601 150.94501 488
-139.37601 150.94501 488
-138.819 150.94501 488
-138.26199 150.94501 488
-84.733498 170.763 472
-84.195099 170.763 472
-83.6567 170.763 472
-83.118202 170.763 472
-82.579803 170.763 472
-172.464 171.24001 484
-171.912 171.24001 484
-171.35899 171.24001 484
-170.80701 171.24001 484
-246.82899 179.808 497
-246.26199 179.808 497
-151.39101 198.455 470
-150.855 198.455 470
-150.319 198.455 470
-149.783 198.455 470
-137.397 163.173 483
-136.84599 163.173 483
-136.295 163.173 483
-135.744 163.173 483
-135.19299 163.173 483
-134.642 163.173 483
-134.091 163.173 483
-133.53999 163.173 483
-115.909 163.173 483
-115.358 163.173 483
-114.807 163.173 483
-114.256 163.173 483
-257.267 175.66701 503
-256.694 175.66701 503
-256.12 175.66701 503
-255.54601 175.66701 503
-254.972 175.66701 503
-254.399 175.66701 503
-233.16901 175.66701 503
-232.595 175.66701 503
-232.021 175.66701 503
-179.174 204.46899 474
-178.633 204.46899 474
-175.38901 204.46899 474
-174.84801 204.46899 474
-231.998 192.03 492
-231.437 192.03 492
-230.87601 192.03 492
-199.37601 179.339 485
-198.82201 179.339 485
-84.016701 171.476 471
-83.479401 171.476 471
-82.942101 171.476 471
-82.4049 171.476 471
-76.494904 171.476 471
-75.957603 171.476 471
-75.420303 171.476 471
-74.883003 171.476 471
-74.345802 171.476 471
-73.808502 171.476 471
-73.271202 171.476 471
-72.733902 171.476 471
-86.528702 146.34 482
-85.978897 146.34 482
-196.241 166.436 491
-195.681 166.436 491
-195.121 166.436 491
-28.981899 150.491 476
-28.438999 150.491 476
-27.353001 150.491 476
-26.809999 150.491 476
-26.267099 150.491 476
-25.7241 150.491 476
-89.3116 193.161 465
-88.781097 193.161 465
-88.250702 193.161 465
-87.720299 193.161 465
-87.189796 193.161 465
-86.659401 193.161 465
-86.128998 193.161 465
-85.598602 193.161 465
-84.537697 193.161 465
-84.007301 193.161 465
-263.039 160.705 512
-262.45499 160.705 512
-221.383 159.53799 501
-220.812 159.53799 501
-209.642 186.745 487
-209.086 186.745 487
-208.53101 186.745 487
-207.42 186.745 487
-206.864 186.745 487
-253.11 151.944 512
-252.526 151.944 512
-251.942 151.944 512
-251.358 151.944 512
-250.774 151.944 512
-250.19 151.944 512
-249.606 151.944 512
-179.823 159.064 489
-179.26601 159.064 489
-175.91901 159.064 489
-175.36099 159.064 489
-174.80299 159.064 489
-174.245 159.064 489
-173.688 159.064 489
-173.13 159.064 489
-172.57201 159.064 489
-172.01401 159.064 489
-238.70399 156.78 505
-238.12801 156.78 505
-200.821 155.619 494
-200.258 155.619 494
-199.694 155.619 494
-194.05901 155.619 494
-193.496 155.619 494
-184.48 155.619 494
-183.916 155.619 494
-182.226 155.619 494
-177.15401 155.619 494
-176.59 155.619 494
-176.02699 155.619 494
-175.463 155.619 494
-153.325 197.80299 471
-152.78799 197.80299 471
-152.25 197.80299 471
-151.713 197.80299 471
-146.34 197.80299 471
-145.80299 197.80299 471
-145.26601 197.80299 471
-144.729 197.80299 471
-144.19099 197.80299 471
-184.42799 203.817 475
-183.886 203.817 475
-183.34399 203.817 475
-182.80299 203.817 475
-182.261 203.817 475
-181.71899 203.817 475
-181.177 203.817 475
-180.63499 203.817 475
-180.093 203.817 475
-179.552 203.817 475
-179.00999 203.817 475
-178.468 203.817 475
-177.92599 203.817 475
-177.384 203.817 475
-176.842 203.817 475
-176.30099 203.817 475
-113.538 214.172 460
-113.013 214.172 460
-112.489 214.172 460
-111.964 214.172 460
-111.439 214.172 460
-110.914 214.172 460
-110.39 214.172 460
-109.865 214.172 460
-105.142 214.172 460
-98.320999 214.172 460
-209.146 211.205 477
-208.60201 211.205 477
-208.058 211.205 477
-207.513 211.205 477
-206.96899 211.205 477
-206.425 211.205 477
-205.881 211.205 477
-205.33701 211.205 477
-204.793 211.205 477
-204.24899 211.205 477
-203.705 211.205 477
-203.161 211.205 477
-227.033 219.28101 478
-226.487 219.28101 478
-225.942 219.28101 478
-101.911 204.036 462
-101.384 204.036 462
-255.181 149.897 515
-254.593 149.897 515
-254.006 149.897 515
-253.418 149.897 515
-242.13 169.717 499
-241.561 169.717 499
-240.991 169.717 499
-240.422 169.717 499
-239.853 169.717 499
-197.86 180.07401 484
-197.308 180.07401 484
-196.756 180.07401 484
-196.20399 180.07401 484
-186.26601 180.07401 484
-185.714 180.07401 484
-185.162 180.07401 484
-184.61 180.07401 484
-184.058 180.07401 484
-183.506 180.07401 484
-182.95399 180.07401 484
-182.40199 180.07401 484
-181.849 180.07401 484
-181.297 180.07401 484
-180.745 180.07401 484
-180.19299 180.07401 484
-179.64101 180.07401 484
-179.089 180.07401 484
-178.537 180.07401 484
-256.927 163.506 508
-217.84801 173.862 493
-217.286 173.862 493
-216.724 173.862 493
-216.161 173.862 493
-215.036 173.862 493
-214.474 173.862 493
-213.912 173.862 493
-213.349 173.862 493
-208.28799 173.862 493
-207.726 173.862 493
-207.16299 173.862 493
-113.956 192.513 466
-107.577 192.513 466
-107.045 192.513 466
-95.8825 192.513 466
-162.40601 148.254 492
-161.845 148.254 492
-161.284 148.254 492
-160.722 148.254 492
-160.161 148.254 492
-159.60001 148.254 492
-150.05901 148.254 492
-149.498 148.254 492
-114.57 163.935 482
-114.02 163.935 482
-157.41901 197.146 472
-156.881 197.146 472
-156.343 197.146 472
-155.804 197.146 472
-155.26601 197.146 472
-154.72701 197.146 472
-154.189 197.146 472
-153.651 197.146 472
-153.112 197.146 472
-217.47701 163.03799 496
-216.911 163.03799 496
-216.345 163.03799 496
-210.687 163.03799 496
-210.121 163.03799 496
-207.858 163.03799 496
-207.29201 163.03799 496
-206.72701 163.03799 496
-206.161 163.03799 496
-205.595 163.03799 496
-210.94501 150.12199 502
-210.373 150.12199 502
-209.8 150.12199 502
-200.065 150.12199 502
-199.492 150.12199 502
-198.92 150.12199 502
-198.347 150.12199 502
-197.77499 150.12199 502
-185.177 150.12199 502
-184.604 150.12199 502
-183.459 150.12199 502
-182.886 150.12199 502
-182.313 150.12199 502
-245.2 180.578 496
-244.63499 180.578 496
-239.54201 180.578 496
-238.97701 180.578 496
-185.35899 203.16 476
-184.81599 203.16 476
-182.10201 203.16 476
-181.55901 203.16 476
-179.92999 203.16 476
-179.38699 203.16 476
-178.84399 203.16 476
-178.30099 203.16 476
-176.129 203.16 476
-175.586 203.16 476
-175.043 203.16 476
-165.269 203.16 476
-164.726 203.16 476
-214.492 210.55701 478
-213.946 210.55701 478
-213.401 210.55701 478
-211.22 210.55701 478
-210.675 210.55701 478
-210.13 210.55701 478
-209.584 210.55701 478
-205.856 152.90199 498
-205.28799 152.90199 498
-204.72 152.90199 498
-26.211901 151.259 475
-177.617 180.804 483
-263.99301 158.709 515
-223.718 188.19099 485
-223.16499 188.19099 485
-208.228 188.19099 485
-207.674 188.19099 485
-207.121 188.19099 485
-206.56799 188.19099 485
-206.015 188.19099 485
-205.461 188.19099 485
-111.004 191.86099 467
-110.471 191.86099 467
-109.939 191.86099 467
-109.406 191.86099 467
-108.873 191.86099 467
-108.341 191.86099 467
-107.808 191.86099 467
-107.275 191.86099 467
-106.742 191.86099 467
-106.21 191.86099 467
-105.677 191.86099 467
-105.144 191.86099 467
-91.8265 191.86099 467
-185.74899 202.49899 477
-185.205 202.49899 477
-180.85201 202.49899 477
-178.131 202.49899 477
-177.58701 202.49899 477
-177.043 202.49899 477
-176.49899 202.49899 477
-175.955 202.49899 477
-175.411 202.49899 477
-194.16499 167.215 490
-193.606 167.215 490
-190.252 167.215 490
-116.629 143.674 486
-136.99899 195.81799 474
-136.459 195.81799 474
-176.69901 181.52901 482
-176.14999 181.52901 482
-213.30099 209.905 479
-212.755 209.905 479
-105.114 209.905 479
-104.568 209.905 479
-226.772 194.922 488
-226.216 194.922 488
-225.659 194.922 488
-225.10201 194.922 488
-223.43201 194.922 488
-222.319 194.922 488
-171.106 159.85201 488
-170.549 159.85201 488
-169.992 159.85201 488
-120.088 203.42101 463
-119.56 203.42101 463
-119.032 203.42101 463
-118.504 203.42101 463
-102.131 203.42101 463
-101.603 203.42101 463
-125.122 191.20399 468
-124.588 191.20399 468
-124.054 191.20399 468
-109.64 191.20399 468
-109.106 191.20399 468
-108.573 191.20399 468
-108.039 191.20399 468
-105.369 191.20399 468
-95.226303 191.20399 468
-186.138 201.83299 478
-119.819 164.692 481
-118.721 164.692 481
-117.624 164.692 481
-114.881 164.692 481
-242.44 154.814 508
-213.478 174.632 492
-206.18201 174.632 492
-205.621 174.632 492
-205.05901 174.632 492
-204.498 174.632 492
-203.937 174.632 492
-203.37601 174.632 492
-202.814 174.632 492
-202.25301 174.632 492
-171.424 195.14799 475
-170.882 195.14799 475
-125.88 213.586 461
-125.354 213.586 461
-124.828 213.586 461
-124.302 213.586 461
-123.776 213.586 461
-123.25 213.586 461
-122.725 213.586 461
-121.147 213.586 461
-120.621 213.586 461
-120.095 213.586 461
-115.888 213.586 461
-115.362 213.586 461
-114.837 213.586 461
-109.578 213.586 461
-109.052 213.586 461
-108.526 213.586 461
-108 213.586 461
-107.474 213.586 461
-106.949 213.586 461
-106.423 213.586 461
-105.897 213.586 461
-152.02299 209.44099 467
-151.49001 209.44099 467
-150.957 209.44099 467
-149.44701 173.47099 481
-148.899 173.47099 481
-148.35001 173.47099 481
-107.524 218.008 480
-221.308 195.634 487
-220.19701 195.634 487
-219.64101 195.634 487
-171.76401 216.147 470
-170.692 216.147 470
-215.086 148.13901 505
-214.50999 148.13901 505
-244.14101 181.343 495
-243.577 181.343 495
-243.01199 181.343 495
-191.992 201.162 479
-191.44501 201.162 479
-190.899 201.162 479
-189.806 201.162 479
-189.25999 201.162 479
-188.713 201.162 479
-188.16701 201.162 479
-187.62 201.162 479
-187.07401 201.162 479
-181.29401 156.429 493
-180.73199 156.429 493
-180.17 156.429 493
-179.60699 156.429 493
-179.045 156.429 493
-176.795 156.429 493
-176.233 156.429 493
-174.54601 156.429 493
-173.414 194.47301 476
-172.871 194.47301 476
-172.328 194.47301 476
-175.784 182.25 481
-175.235 182.25 481
-174.687 182.25 481
-219.80099 160.36099 500
-219.23 160.36099 500
-217.519 160.36099 500
-216.94901 160.36099 500
-125.389 190.543 469
-124.854 190.543 469
-105.595 190.543 469
-105.06 190.543 469
-94.359802 190.543 469
-92.754799 190.543 469
-199.92599 191.02901 481
-199.377 191.02901 481
-188.40401 191.02901 481
-187.855 191.02901 481
-245.79201 167.061 503
-245.218 167.061 503
-244.644 167.061 503
-244.071 167.061 503
-243.49699 167.061 503
-26.1567 152.022 474
-25.615999 152.022 474
-218.636 196.341 486
-200.44 193.793 477
-199.896 193.793 477
-174.32201 193.793 477
-173.778 193.793 477
-185.593 193.10899 478
-185.048 193.10899 478
-176.32401 193.10899 478
-175.778 193.10899 478
-197.32001 191.72701 480
-189.10699 191.72701 480
-188.56 191.72701 480
-188.01199 191.72701 480
-180.347 191.72701 480
-179.799 191.72701 480
-179.25101 191.72701 480
-237.082 157.619 504
-236.507 157.619 504
-235.93201 157.619 504
-213.64999 163.839 495
-213.086 163.839 495
-212.521 163.839 495
-211.95599 163.839 495
-211.392 163.839 495
-210.827 163.839 495
-210.26199 163.839 495
-209.698 163.839 495
-207.439 163.839 495
-206.87399 163.839 495
-206.31 163.839 495
-205.745 163.839 495
-205.17999 163.839 495
-204.616 163.839 495
-204.05099 163.839 495
-176.51401 182.966 480
-175.966 182.966 480
-175.41901 182.966 480
-174.871 182.966 480
-174.32401 182.966 480
-173.776 182.966 480
-173.229 182.966 480
-172.681 182.966 480
-195.27 192.42 479
-194.724 192.42 479
-187.62 192.42 479
-187.07401 192.42 479
-186.528 192.42 479
-184.888 192.42 479
-184.342 192.42 479
-183.79601 192.42 479
-183.24899 192.42 479
-182.703 192.42 479
-182.15601 192.42 479
-181.61 192.42 479
-181.064 192.42 479
-180.517 192.42 479
-179.97099 192.42 479
-179.424 192.42 479
-178.87801 192.42 479
-178.332 192.42 479
-177.785 192.42 479
-177.239 192.42 479
-105.284 189.877 470
-104.747 189.877 470
-104.211 189.877 470
-103.675 189.877 470
-103.139 189.877 470
-94.560997 189.877 470
-94.024803 189.877 470
-93.488701 189.877 470
-216.735 198.43401 483
-216.18401 198.43401 483
-215.633 198.43401 483
-215.082 198.43401 483
-218.28799 197.741 484
-217.73599 197.741 484
-146.94701 174.205 480
-146.399 174.205 480
-144.756 174.205 480
-143.661 174.205 480
-143.114 174.205 480
-142.56599 174.205 480
-142.019 174.205 480
-141.47099 174.205 480
-140.924 174.205 480
-140.37601 174.205 480
-139.82899 174.205 480
-158.715 149.073 491
-158.155 149.073 491
-157.595 149.073 491
-157.035 149.073 491
-155.355 149.073 491
-154.795 149.073 491
-154.235 149.073 491
-153.675 149.073 491
-153.11501 149.073 491
-152.554 149.073 491
-150.87399 149.073 491
-150.314 149.073 491
-149.754 149.073 491
-149.194 149.073 491
-119.022 165.44501 480
-118.475 165.44501 480
-117.927 165.44501 480
-117.379 165.44501 480
-116.832 165.44501 480
-116.284 165.44501 480
-115.737 165.44501 480
-115.189 165.44501 480
-114.642 165.44501 480
-159.754 183.67799 479
-159.20799 183.67799 479
-158.661 183.67799 479
-107.748 217.36501 481
-107.199 217.36501 481
-122.994 202.802 464
-122.465 202.802 464
-121.935 202.802 464
-121.406 202.802 464
-120.877 202.802 464
-118.23 202.802 464
-117.701 202.802 464
-103.94 202.802 464
-103.41 202.802 464
-123.238 189.20599 471
-122.7 189.20599 471
-122.163 189.20599 471
-121.626 189.20599 471
-121.089 189.20599 471
-120.551 189.20599 471
-120.014 189.20599 471
-119.477 189.20599 471
-118.939 189.20599 471
-118.402 189.20599 471
-117.865 189.20599 471
-117.328 189.20599 471
-116.79 189.20599 471
-115.179 189.20599 471
-114.641 189.20599 471
-114.104 189.20599 471
-113.567 189.20599 471
-113.029 189.20599 471
-112.492 189.20599 471
-139.35899 152.54401 486
-138.80499 152.54401 486
-138.25 152.54401 486
-137.696 152.54401 486
-137.14101 152.54401 486
-136.58701 152.54401 486
-205.763 175.397 491
-205.203 175.397 491
-204.64301 175.397 491
-252.033 152.813 511
-251.45 152.813 511
-250.867 152.813 511
-176.383 146.33501 495
-159.82201 208.821 468
-159.28799 208.821 468
-158.755 208.821 468
-158.22099 208.821 468
-157.687 208.821 468
-157.153 208.821 468
-156.619 208.821 468
-156.08501 208.821 468
-155.01801 208.821 468
-154.48399 208.821 468
-153.95 208.821 468
-153.416 208.821 468
-199.77299 153.729 497
-199.20599 153.729 497
-198.63901 153.729 497
-210.52499 150.966 501
-209.953 150.966 501
-200.81 150.966 501
-200.23801 150.966 501
-199.66701 150.966 501
-197.952 150.966 501
-197.381 150.966 501
-185.379 150.966 501
-170.755 160.636 487
-170.19901 160.636 487
-169.644 160.636 487
-169.088 160.636 487
-168.533 160.636 487
-167.97701 160.636 487
-166.866 160.636 487
-240.267 182.104 494
-239.70399 182.104 494
-239.14 182.104 494
-232.94099 182.104 494
-232.37801 182.104 494
-231.814 182.104 494
-231.25101 182.104 494
-230.687 182.104 494
-230.12399 182.104 494
-229.56 182.104 494
-222.235 182.104 494
-221.67101 182.104 494
-221.108 182.104 494
-96.472397 144.485 485
-95.919098 144.485 485
-123.499 188.53101 472
-116.5 188.53101 472
-143.362 174.935 479
-142.81599 174.935 479
-142.269 174.935 479
-141.72301 174.935 479
-141.17599 174.935 479
-140.63 174.935 479
-140.084 174.935 479
-139.537 174.935 479
-138.991 174.935 479
-138.444 174.935 479
-137.89799 174.935 479
-137.35201 174.935 479
-157.455 185.08701 477
-132.394 187.851 473
-131.854 187.851 473
-131.315 187.851 473
-130.77499 187.851 473
-130.23599 187.851 473
-129.157 187.851 473
-125.38 187.851 473
-138.621 187.16701 474
-138.08099 187.16701 474
-137.53999 187.16701 474
-136.99899 187.16701 474
-136.459 187.16701 474
-135.918 187.16701 474
-135.377 187.16701 474
-127.267 187.16701 474
-126.726 187.16701 474
-126.185 187.16701 474
-24.4828 152.78 473
-23.9433 152.78 473
-21.785101 152.78 473
-21.245501 152.78 473
-20.7059 152.78 473
-20.166401 152.78 473
-19.626801 152.78 473
-19.087299 152.78 473
-18.547701 152.78 473
-151.37601 186.478 475
-150.834 186.478 475
-150.29201 186.478 475
-149.75101 186.478 475
-149.209 186.478 475
-148.66701 186.478 475
-154.953 185.785 476
-154.41 185.785 476
-153.867 185.785 476
-153.32401 185.785 476
-152.78101 185.785 476
-152.23801 185.785 476
-151.69501 185.785 476
-151.15199 185.785 476
-150.60899 185.785 476
-150.06599 185.785 476
-149.52299 185.785 476
-148.98 185.785 476
-148.437 185.785 476
-147.894 185.785 476
-147.351 185.785 476
-146.808 185.785 476
-146.265 185.785 476
-254.099 150.77901 514
-253.51199 150.77901 514
-126.68 212.995 462
-126.153 212.995 462
-125.626 212.995 462
-119.302 212.995 462
-118.775 212.995 462
-118.248 212.995 462
-117.721 212.995 462
-117.194 212.995 462
-109.289 212.995 462
-108.762 212.995 462
-108.235 212.995 462
-107.708 212.995 462
-107.181 212.995 462
-233.85001 202.42799 490
-233.291 202.42799 490
-232.73199 202.42799 490
-225.466 206.575 484
-224.91299 206.575 484
-224.36099 206.575 484
-223.80901 206.575 484
-223.257 206.575 484
-222.705 206.575 484
-253.22301 148.71001 517
-116.588 166.19299 479
-224.718 171.304 497
-224.151 171.304 497
-123.259 202.17799 465
-122.729 202.17799 465
-122.198 202.17799 465
-116.894 202.17799 465
-115.833 202.17799 465
-114.772 202.17799 465
-112.12 202.17799 465
-233.373 203.131 489
-232.815 203.131 489
-232.257 203.131 489
-142.51801 175.66 478
-141.972 175.66 478
-141.427 175.66 478
-140.882 175.66 478
-140.336 175.66 478
-137.61 175.66 478
-137.065 175.66 478
-205.88499 205.211 486
-205.33099 205.211 486
-233.52901 204.522 487
-232.974 204.522 487
-205.198 204.522 487
-204.642 204.522 487
-265.23901 159.57401 514
-264.65302 159.57401 514
-264.06601 159.57401 514
-263.48001 159.57401 514
-205.34399 176.158 490
-204.785 176.158 490
-161.23399 208.19701 469
-160.69901 208.19701 469
-160.164 208.19701 469
-159.629 208.19701 469
-158.55901 208.19701 469
-158.024 208.19701 469
-157.489 208.19701 469
-156.95399 208.19701 469
-156.41901 208.19701 469
-155.884 208.19701 469
-155.349 208.19701 469
-218.79201 161.17799 499
-218.22301 161.17799 499
-217.65401 161.17799 499
-216.515 161.17799 499
-215.946 161.17799 499
-215.377 161.17799 499
-243.58501 167.87399 502
-243.013 167.87399 502
-241.295 167.87399 502
-240.722 167.87399 502
-210.965 164.63499 494
-210.401 164.63499 494
-209.838 164.63499 494
-209.274 164.63499 494
-208.711 164.63499 494
-208.147 164.63499 494
-207.584 164.63499 494
-207.02 164.63499 494
-204.76601 164.63499 494
-204.202 164.63499 494
-203.63901 164.63499 494
-203.075 164.63499 494
-201.948 164.63499 494
-201.38499 164.63499 494
-200.821 164.63499 494
-233.595 182.86 493
-233.032 182.86 493
-232.47 182.86 493
-231.908 182.86 493
-231.345 182.86 493
-230.783 182.86 493
-23.3542 153.534 472
-22.8158 153.534 472
-22.277399 153.534 472
-240.228 155.666 507
-239.64999 155.666 507
-142.21899 176.381 477
-141.675 176.381 477
-140.043 176.381 477
-136.778 176.381 477
-136.23399 176.381 477
-188.10899 214.91299 472
-187.571 214.91299 472
-187.032 214.91299 472
-186.494 214.91299 472
-185.955 214.91299 472
-185.41701 214.91299 472
-184.879 214.91299 472
-109.257 166.936 478
-108.711 166.936 478
-108.166 166.936 478
-107.621 166.936 478
-107.076 166.936 478
-106.53 166.936 478
-105.985 166.936 478
-105.44 166.936 478
-167.078 161.414 486
-166.524 161.414 486
-165.41499 161.414 486
-151.685 149.88699 490
-151.12601 149.88699 490
-150.567 149.88699 490
-149.44901 149.88699 490
-141.92101 177.097 476
-141.37801 177.097 476
-140.83501 177.097 476
-137.034 177.097 476
-123.46 177.097 476
-122.917 177.097 476
-122.374 177.097 476
-121.831 177.097 476
-121.288 177.097 476
-120.745 177.097 476
-120.202 177.097 476
-214.66 148.995 504
-264.42801 157.55701 517
-124.056 201.55 466
-123.524 201.55 466
-122.993 201.55 466
-111.83 201.55 466
-110.766 201.55 466
-110.235 201.55 466
-109.172 201.55 466
-108.64 201.55 466
-107.577 201.55 466
-139.998 177.80901 475
-139.45599 177.80901 475
-138.914 177.80901 475
-138.37199 177.80901 475
-137.83 177.80901 475
-137.28799 177.80901 475
-121.575 177.80901 475
-120.491 177.80901 475
-119.95 177.80901 475
-119.408 177.80901 475
-188.246 144.381 498
-187.67799 144.381 498
-187.11 144.381 498
-185.97301 144.381 498
-185.405 144.381 498
-184.83701 144.381 498
-184.269 144.381 498
-183.701 144.381 498
-183.133 144.381 498
-163.186 207.569 470
-162.64999 207.569 470
-157.825 207.569 470
-261.42999 162.40401 510
-260.84799 162.40401 510
-260.26599 162.40401 510
-259.68399 162.40401 510
-55.006901 169.254 462
-54.4799 169.254 462
-53.9529 169.254 462
-179.64301 169.524 487
-179.088 169.524 487
-178.532 169.524 487
-134.34801 212.39999 463
-133.82001 212.39999 463
-133.29201 212.39999 463
-132.76401 212.39999 463
-132.23599 212.39999 463
-131.707 212.39999 463
-131.179 212.39999 463
-130.651 212.39999 463
-130.123 212.39999 463
-128.539 212.39999 463
-128.00999 212.39999 463
-127.482 212.39999 463
-126.954 212.39999 463
-126.426 212.39999 463
-125.898 212.39999 463
-118.504 212.39999 463
-95.169296 145.291 484
-94.617203 145.291 484
-94.065102 145.291 484
-93.513 145.291 484
-211.618 176.914 489
-211.061 176.914 489
-210.50301 176.914 489
-209.94501 176.914 489
-207.714 176.914 489
-207.15601 176.914 489
-206.59801 176.914 489
-206.03999 176.914 489
-205.48199 176.914 489
-204.925 176.914 489
-204.367 176.914 489
-203.80901 176.914 489
-203.25101 176.914 489
-200.46201 176.914 489
-231.437 183.61099 492
-230.87601 183.61099 492
-230.315 183.61099 492
-174.89999 147.166 494
-174.336 147.166 494
-173.77299 147.166 494
-165.32001 147.166 494
-164.757 147.166 494
-110.116 167.675 477
-109.572 167.675 477
-109.028 167.675 477
-108.484 167.675 477
-107.94 167.675 477
-106.852 167.675 477
-106.308 167.675 477
-105.763 167.675 477
-105.219 167.675 477
-120.778 178.51601 474
-199.371 154.55099 496
-198.80499 154.55099 496
-198.24001 154.55099 496
-95.760101 182.66299 468
-95.226303 182.66299 468
-94.692398 182.66299 468
-94.1586 182.66299 468
-222.569 172.091 496
-222.00301 172.091 496
-221.437 172.091 496
-220.871 172.091 496
-210.675 151.80499 500
-210.105 151.80499 500
-203.83099 151.80499 500
-203.261 151.80499 500
-202.12 151.80499 500
-201.549 151.80499 500
-200.409 151.80499 500
-97.034698 181.983 469
-96.499702 181.983 469
-93.824799 181.983 469
-94.560997 181.299 470
-189.58701 214.28999 473
-189.047 214.28999 473
-188.508 214.28999 473
-187.968 214.28999 473
-187.42799 214.28999 473
-186.349 214.28999 473
-185.81 214.28999 473
-185.27 214.28999 473
-184.731 214.28999 473
-184.19099 214.28999 473
-183.65199 214.28999 473
-183.112 214.28999 473
-182.57201 214.28999 473
-119.73 179.916 472
-119.192 179.916 472
-118.654 179.916 472
-118.115 179.916 472
-249.213 153.67799 510
-248.631 153.67799 510
-248.049 153.67799 510
-117.865 180.61 471
-117.328 180.61 471
-116.79 180.61 471
-116.253 180.61 471
-115.716 180.61 471
-180.55901 158.034 491
-179.439 158.034 491
-126.453 200.91701 467
-125.92 200.91701 467
-209.97501 165.42599 493
-209.41299 165.42599 493
-208.85001 165.42599 493
-208.28799 165.42599 493
-207.726 165.42599 493
-203.22701 165.42599 493
-202.664 165.42599 493
-202.10201 165.42599 493
-201.53999 165.42599 493
-199.28999 165.42599 493
-198.728 165.42599 493
-198.16499 165.42599 493
-163.41499 162.189 485
-152.35001 162.189 485
-141.838 162.189 485
-141.285 162.189 485
-250.668 178.82401 499
-250.099 178.82401 499
-249.53 178.82401 499
-176.965 206.936 471
-176.42799 206.936 471
-175.89 206.936 471
-232.647 184.358 491
-232.08701 184.358 491
-231.52699 184.358 491
-230.967 184.358 491
-114.772 168.41 476
-114.229 168.41 476
-108.8 168.41 476
-108.257 168.41 476
-107.714 168.41 476
-107.171 168.41 476
-106.628 168.41 476
-106.085 168.41 476
-105.542 168.41 476
-96.854103 168.41 476
-96.311096 168.41 476
-95.768097 168.41 476
-95.225197 168.41 476
-94.682198 168.41 476
-243.672 168.68201 501
-243.10001 168.68201 501
-242.52901 168.68201 501
-240.243 168.68201 501
-200.052 177.66499 488
-198.939 177.66499 488
-97.796303 205.776 460
-97.271599 205.776 460
-96.746803 205.776 460
-96.222099 205.776 460
-222.89799 161.992 498
-181.492 170.285 486
-174.839 170.285 486
-174.285 170.285 486
-150.817 150.69701 489
-150.25999 150.69701 489
-149.702 150.69701 489
-145.797 150.69701 489
-145.239 150.69701 489
-144.68201 150.69701 489
-144.12399 150.69701 489
-257.70099 151.65601 513
-257.116 151.65601 513
-256.53 151.65601 513
-255.94501 151.65601 513
-255.36 151.65601 513
-254.77499 151.65601 513
-254.19 151.65601 513
-253.604 151.65601 513
-253.019 151.65601 513
-252.43401 151.65601 513
-250.67799 151.65601 513
-136.226 211.8 464
-135.69701 211.8 464
-135.168 211.8 464
-129.875 211.8 464
-129.345 211.8 464
-118.76 211.8 464
-106.404 169.14 475
-105.862 169.14 475
-105.32 169.14 475
-104.778 169.14 475
-104.236 169.14 475
-103.694 169.14 475
-129.927 200.28 468
-129.39301 200.28 468
-93.680801 194.97099 463
-93.152603 194.97099 463
-92.624496 194.97099 463
-177.879 206.299 472
-169.80299 206.299 472
-169.265 206.299 472
-253.91 149.60001 516
-94.4217 146.093 483
-85.6063 146.093 483
-85.055298 146.093 483
-84.504303 146.093 483
-239.754 156.513 506
-239.177 156.513 506
-199.642 178.412 487
-191.30901 178.412 487
-190.754 178.412 487
-190.198 178.412 487
-148.72301 162.959 484
-148.17101 162.959 484
-147.619 162.959 484
-147.067 162.959 484
-146.515 162.959 484
-145.963 162.959 484
-145.411 162.959 484
-144.306 162.959 484
-143.202 162.959 484
-142.64999 162.959 484
-201.228 155.369 495
-200.66299 155.369 495
-200.099 155.369 495
-199.534 155.369 495
-198.96899 155.369 495
-198.405 155.369 495
-197.84 155.369 495
-197.27499 155.369 495
-196.711 155.369 495
-196.146 155.369 495
-195.58099 155.369 495
-218.25101 149.847 503
-211.939 149.847 503
-211.36501 149.847 503
-210.79201 149.847 503
-210.218 149.847 503
-209.644 149.847 503
-198.742 149.847 503
-198.16901 149.847 503
-174.48 171.041 485
-173.92599 171.041 485
-173.373 171.041 485
-172.82001 171.041 485
-137.966 171.041 485
-248.461 179.60201 498
-247.89301 179.60201 498
-247.325 179.60201 498
-178.23 145.22501 497
-177.66299 145.22501 497
-177.09599 145.22501 497
-156.41901 199.638 469
-155.884 199.638 469
-155.349 199.638 469
-154.814 199.638 469
-154.27901 199.638 469
-153.744 199.638 469
-206.743 166.213 492
-206.18201 166.213 492
-204.498 166.213 492
-203.937 166.213 492
-197.763 166.213 492
-197.202 166.213 492
-258.59399 163.24699 509
-258.01401 163.24699 509
-163.86099 147.993 493
-163.299 147.993 493
-162.73599 147.993 493
-179.073 158.83 490
-178.51401 158.83 490
-177.396 158.83 490
-211.061 185.839 489
-210.50301 185.839 489
-209.94501 185.839 489
-101.69 205.172 461
-101.164 205.172 461
-100.112 205.172 461
-99.586502 205.172 461
-99.0606 205.172 461
-178.79601 205.657 473
-178.256 205.657 473
-176.63699 205.657 473
-176.09801 205.657 473
-172.86 205.657 473
-172.321 205.657 473
-171.78101 205.657 473
-91.387703 170.586 473
-90.848099 170.586 473
-90.308502 170.586 473
-85.452599 170.586 473
-84.913002 170.586 473
-263.91699 158.429 516
-244.326 169.48599 500
-243.756 169.48599 500
-243.185 169.48599 500
-239.763 169.48599 500
-199.787 179.155 486
-143.41499 211.196 465
-140.763 211.196 465
-140.233 211.196 465
-138.64101 211.196 465
-138.11099 211.196 465
-128.563 211.196 465
-128.033 211.196 465
-209.685 152.64 499
-209.11501 152.64 499
-208.54601 152.64 499
-207.97701 152.64 499
-204.562 152.64 499
-203.992 152.64 499
-200.577 152.64 499
-200.008 152.64 499
-165.161 217.897 468
-209.978 162.8 497
-209.411 162.8 497
-208.84399 162.8 497
-208.27699 162.8 497
-97.116997 171.302 472
-96.578598 171.302 472
-96.040199 171.302 472
-95.501801 171.302 472
-85.271896 171.302 472
-84.733498 171.302 472
-84.195099 171.302 472
-82.579803 171.302 472
-117.98 143.414 487
-154.608 198.991 470
-154.07201 198.991 470
-153.536 198.991 470
-152.99899 198.991 470
-152.463 198.991 470
-151.927 198.991 470
-151.39101 198.991 470
-150.855 198.991 470
-150.319 198.991 470
-149.783 198.991 470
-116.006 198.991 470
-219.981 173.651 494
-219.41701 173.651 494
-218.854 173.651 494
-216.036 173.651 494
-214.909 173.651 494
-213.21899 173.651 494
-212.655 173.651 494
-171.912 171.79201 484
-171.35899 171.79201 484
-170.80701 171.79201 484
-246.98199 154.53799 509
-246.401 154.53799 509
-245.821 154.53799 509
-145.11 163.724 483
-144.55901 163.724 483
-137.397 163.724 483
-136.84599 163.724 483
-136.295 163.724 483
-135.744 163.724 483
-135.19299 163.724 483
-134.642 163.724 483
-134.091 163.724 483
-149.952 151.502 488
-149.396 151.502 488
-148.839 151.502 488
-147.16901 151.502 488
-139.37601 151.502 488
-138.819 151.502 488
-86.703102 172.013 471
-83.479401 172.013 471
-82.942101 172.013 471
-82.4049 172.013 471
-77.032097 172.013 471
-76.494904 172.013 471
-75.957603 172.013 471
-75.420303 172.013 471
-73.808502 172.013 471
-73.271202 172.013 471
-72.733902 172.013 471
-88.781097 193.692 465
-88.250702 193.692 465
-87.720299 193.692 465
-86.659401 193.692 465
-85.598602 193.692 465
-179.714 205.00999 474
-179.174 205.00999 474
-178.633 205.00999 474
-178.092 205.00999 474
-177.55099 205.00999 474
-177.011 205.00999 474
-176.47 205.00999 474
-175.929 205.00999 474
-28.981899 151.034 476
-28.438999 151.034 476
-27.353001 151.034 476
-26.809999 151.034 476
-26.267099 151.034 476
-113.538 214.69701 460
-113.013 214.69701 460
-111.964 214.69701 460
-110.914 214.69701 460
-105.142 214.69701 460
-98.320999 214.69701 460
-97.796303 214.69701 460
-86.528702 146.89 482
-85.978897 146.89 482
-231.437 192.591 492
-214.935 147.855 506
-214.358 147.855 506
-213.78 147.855 506
-213.203 147.855 506
-199.929 179.89301 485
-199.37601 179.89301 485
-198.82201 179.89301 485
-198.269 179.89301 485
-187.758 179.89301 485
-187.20399 179.89301 485
-186.651 179.89301 485
-246.26199 180.375 497
-245.69501 180.375 497
-77.404701 172.72 470
-196.241 166.996 491
-195.681 166.996 491
-195.121 166.996 491
-154.937 198.34 471
-154.39999 198.34 471
-153.862 198.34 471
-153.325 198.34 471
-152.78799 198.34 471
-152.25 198.34 471
-151.713 198.34 471
-146.34 198.34 471
-145.80299 198.34 471
-145.26601 198.34 471
-257.267 176.241 503
-256.694 176.241 503
-256.12 176.241 503
-255.54601 176.241 503
-254.972 176.241 503
-254.399 176.241 503
-102.438 204.563 462
-101.911 204.563 462
-101.384 204.563 462
-184.42799 204.35899 475
-183.886 204.35899 475
-183.34399 204.35899 475
-182.80299 204.35899 475
-182.261 204.35899 475
-181.71899 204.35899 475
-181.177 204.35899 475
-180.63499 204.35899 475
-180.093 204.35899 475
-179.552 204.35899 475
-179.00999 204.35899 475
-178.468 204.35899 475
-177.92599 204.35899 475
-177.384 204.35899 475
-176.842 204.35899 475
-176.30099 204.35899 475
-208.60201 211.74899 477
-208.058 211.74899 477
-207.513 211.74899 477
-206.96899 211.74899 477
-206.425 211.74899 477
-205.881 211.74899 477
-205.33701 211.74899 477
-204.793 211.74899 477
-204.24899 211.74899 477
-209.642 187.30099 487
-209.086 187.30099 487
-208.53101 187.30099 487
-207.42 187.30099 487
-206.864 187.30099 487
-206.30901 187.30099 487
-227.033 219.826 478
-226.487 219.826 478
-225.942 219.826 478
-152.82401 172.539 483
-152.27299 172.539 483
-151.722 172.539 483
-114.487 193.045 466
-107.577 193.045 466
-107.045 193.045 466
-96.414001 193.045 466
-95.8825 193.045 466
-179.823 159.62199 489
-179.26601 159.62199 489
-173.688 159.62199 489
-173.13 159.62199 489
-172.57201 159.62199 489
-172.01401 159.62199 489
-263.039 161.289 512
-262.45499 161.289 512
-261.871 161.289 512
-221.383 160.11 501
-220.812 160.11 501
-229.847 193.32001 491
-186.26601 180.62601 484
-185.714 180.62601 484
-185.162 180.62601 484
-184.61 180.62601 484
-183.506 180.62601 484
-182.95399 180.62601 484
-182.40199 180.62601 484
-181.849 180.62601 484
-181.297 180.62601 484
-180.745 180.62601 484
-180.19299 180.62601 484
-179.64101 180.62601 484
-179.089 180.62601 484
-178.537 180.62601 484
-238.70399 157.356 505
-201.38499 156.18201 494
-200.821 156.18201 494
-200.258 156.18201 494
-199.694 156.18201 494
-183.916 156.18201 494
-183.353 156.18201 494
-182.789 156.18201 494
-176.02699 156.18201 494
-175.463 156.18201 494
-157.41901 197.68401 472
-156.881 197.68401 472
-156.343 197.68401 472
-155.804 197.68401 472
-155.26601 197.68401 472
-154.72701 197.68401 472
-154.189 197.68401 472
-153.651 197.68401 472
-255.446 152.52901 512
-254.862 152.52901 512
-254.278 152.52901 512
-253.694 152.52901 512
-253.11 152.52901 512
-252.526 152.52901 512
-251.942 152.52901 512
-209.76601 188.02499 486
-209.211 188.02499 486
-208.657 188.02499 486
-115.119 164.48399 482
-114.57 164.48399 482
-215.599 174.424 493
-215.036 174.424 493
-213.349 174.424 493
-207.726 174.424 493
-207.16299 174.424 493
-161.845 148.815 492
-161.284 148.815 492
-160.722 148.815 492
-160.161 148.815 492
-156.233 148.815 492
-149.498 148.815 492
-185.35899 203.703 476
-184.81599 203.703 476
-178.30099 203.703 476
-177.215 203.703 476
-176.672 203.703 476
-176.129 203.703 476
-165.269 203.703 476
-164.726 203.703 476
-164.183 203.703 476
-163.64 203.703 476
-242.13 170.286 499
-241.561 170.286 499
-240.991 170.286 499
-240.422 170.286 499
-239.853 170.286 499
-114.2 192.394 467
-113.668 192.394 467
-113.135 192.394 467
-112.602 192.394 467
-112.07 192.394 467
-111.537 192.394 467
-111.004 192.394 467
-110.471 192.394 467
-109.939 192.394 467
-109.406 192.394 467
-108.873 192.394 467
-108.341 192.394 467
-107.808 192.394 467
-107.275 192.394 467
-106.742 192.394 467
-106.21 192.394 467
-91.8265 192.394 467
-91.2938 192.394 467
-214.492 211.10201 478
-213.946 211.10201 478
-213.401 211.10201 478
-211.765 211.10201 478
-211.22 211.10201 478
-210.675 211.10201 478
-210.13 211.10201 478
-209.584 211.10201 478
-27.2955 151.80099 475
-26.7537 151.80099 475
-26.211901 151.80099 475
-217.47701 163.604 496
-216.911 163.604 496
-216.345 163.604 496
-215.77901 163.604 496
-215.213 163.604 496
-214.64799 163.604 496
-210.121 163.604 496
-209.556 163.604 496
-208.99001 163.604 496
-208.424 163.604 496
-207.858 163.604 496
-256.34799 164.08501 508
-211.51801 150.69501 502
-210.94501 150.69501 502
-185.177 150.69501 502
-183.459 150.69501 502
-182.886 150.69501 502
-182.313 150.69501 502
-178.168 181.355 483
-177.617 181.355 483
-245.76601 181.144 496
-245.2 181.144 496
-223.16499 188.744 485
-222.612 188.744 485
-207.674 188.744 485
-207.121 188.744 485
-206.56799 188.744 485
-206.015 188.744 485
-205.461 188.744 485
-204.908 188.744 485
-150.308 173.282 482
-107.496 216.916 495
-108.279 216.22301 496
-107.713 216.22301 496
-186.293 203.043 477
-178.675 203.043 477
-178.131 203.043 477
-177.58701 203.043 477
-176.49899 203.043 477
-175.955 203.043 477
-175.411 203.043 477
-117.184 144.229 486
-116.629 144.229 486
-116.075 144.229 486
-106.65 144.229 486
-106.096 144.229 486
-105.541 144.229 486
-206.992 153.47 498
-206.424 153.47 498
-205.856 153.47 498
-205.28799 153.47 498
-204.72 153.47 498
-123.785 203.95 463
-123.257 203.95 463
-122.729 203.95 463
-119.56 203.95 463
-119.032 203.95 463
-118.504 203.95 463
-102.659 203.95 463
-102.131 203.95 463
-101.603 203.95 463
-101.075 203.95 463
-125.656 191.73801 468
-125.122 191.73801 468
-124.588 191.73801 468
-124.054 191.73801 468
-123.52 191.73801 468
-109.64 191.73801 468
-109.106 191.73801 468
-108.573 191.73801 468
-105.369 191.73801 468
-104.836 191.73801 468
-92.023201 191.73801 468
-194.724 167.77299 490
-194.16499 167.77299 490
-193.606 167.77299 490
-193.047 167.77299 490
-192.48801 167.77299 490
-191.929 167.77299 490
-191.37 167.77299 490
-190.811 167.77299 490
-190.252 167.77299 490
-176.69901 182.07899 482
-125.354 214.112 461
-124.828 214.112 461
-124.302 214.112 461
-123.776 214.112 461
-123.25 214.112 461
-122.725 214.112 461
-122.199 214.112 461
-121.673 214.112 461
-121.147 214.112 461
-120.621 214.112 461
-120.095 214.112 461
-115.362 214.112 461
-114.837 214.112 461
-114.311 214.112 461
-110.104 214.112 461
-109.578 214.112 461
-109.052 214.112 461
-108.526 214.112 461
-108 214.112 461
-107.474 214.112 461
-106.949 214.112 461
-106.423 214.112 461
-105.897 214.112 461
-96.957199 214.112 461
-96.431297 214.112 461
-186.683 202.37801 478
-115.429 156.46201 481
-114.881 156.46201 481
-221.601 189.46001 484
-221.049 189.46001 484
-151.49001 209.97301 467
-150.957 209.97301 467
-150.425 209.97301 467
-213.30099 210.451 479
-212.755 210.451 479
-212.20799 210.451 479
-104.568 210.451 479
-254.465 177.036 502
-253.89301 177.036 502
-253.32001 177.036 502
-252.748 177.036 502
-226.216 195.479 488
-225.659 195.479 488
-225.10201 195.479 488
-224.54601 195.479 488
-223.989 195.479 488
-223.43201 195.479 488
-222.87601 195.479 488
-222.319 195.479 488
-171.662 160.409 488
-171.106 160.409 488
-170.549 160.409 488
-263.405 159.297 515
-120.367 165.241 481
-119.819 165.241 481
-171.966 195.69 475
-171.424 195.69 475
-170.882 195.69 475
-170.692 216.683 470
-169.08299 216.683 470
-168.547 216.683 470
-125.389 191.078 469
-124.319 191.078 469
-123.784 191.078 469
-105.06 191.078 469
-94.359802 191.078 469
-92.754799 191.078 469
-211.116 201.709 479
-210.569 201.709 479
-210.02299 201.709 479
-209.476 201.709 479
-208.92999 201.709 479
-191.992 201.709 479
-191.44501 201.709 479
-188.713 201.709 479
-188.16701 201.709 479
-187.62 201.709 479
-187.07401 201.709 479
-203.51199 190.17 483
-202.961 190.17 483
-202.41 190.17 483
-206.743 175.19299 492
-204.498 175.19299 492
-203.937 175.19299 492
-148.899 174.02 481
-148.35001 174.02 481
-173.414 195.01601 476
-172.871 195.01601 476
-176.881 182.798 481
-176.33299 182.798 481
-26.1567 152.563 474
-25.615999 152.563 474
-25.0753 152.563 474
-200.44 194.33701 477
-199.896 194.33701 477
-199.35201 194.33701 477
-174.866 194.33701 477
-174.32201 194.33701 477
-244.70599 181.908 495
-244.14101 181.908 495
-243.577 181.908 495
-243.01199 181.908 495
-242.44701 181.908 495
-187.855 191.577 481
-210.461 201.035 480
-209.914 201.035 480
-209.366 201.035 480
-241.86099 155.39301 508
-218.636 196.895 486
-218.08099 196.895 486
-175.778 193.65401 478
-187.62 192.966 479
-187.07401 192.966 479
-186.528 192.966 479
-184.888 192.966 479
-184.342 192.966 479
-183.79601 192.966 479
-183.24899 192.966 479
-182.703 192.966 479
-182.15601 192.966 479
-181.61 192.966 479
-181.064 192.966 479
-180.517 192.966 479
-179.97099 192.966 479
-179.424 192.966 479
-178.87801 192.966 479
-178.332 192.966 479
-177.785 192.966 479
-177.239 192.966 479
-176.692 192.966 479
-197.32001 192.274 480
-196.77299 192.274 480
-189.10699 192.274 480
-188.56 192.274 480
-180.347 192.274 480
-179.25101 192.274 480
-126.729 190.41299 470
-126.193 190.41299 470
-105.284 190.41299 470
-104.747 190.41299 470
-104.211 190.41299 470
-103.675 190.41299 470
-103.139 190.41299 470
-94.024803 190.41299 470
-93.488701 190.41299 470
-200.97701 156.991 493
-182.981 156.991 493
-182.41901 156.991 493
-181.29401 156.991 493
-180.73199 156.991 493
-180.17 156.991 493
-179.60699 156.991 493
-176.233 156.991 493
-175.67101 156.991 493
-175.108 156.991 493
-183.084 183.513 480
-179.799 183.513 480
-179.25101 183.513 480
-178.70399 183.513 480
-178.15601 183.513 480
-177.60899 183.513 480
-177.061 183.513 480
-176.51401 183.513 480
-175.966 183.513 480
-175.41901 183.513 480
-174.871 183.513 480
-174.32401 183.513 480
-173.776 183.513 480
-173.229 183.513 480
-172.681 183.513 480
-172.133 183.513 480
-171.586 183.513 480
-226.645 160.931 500
-226.075 160.931 500
-225.504 160.931 500
-224.93401 160.931 500
-224.364 160.931 500
-123.523 203.33099 464
-122.994 203.33099 464
-122.465 203.33099 464
-121.935 203.33099 464
-121.406 203.33099 464
-120.877 203.33099 464
-118.23 203.33099 464
-117.701 203.33099 464
-103.94 203.33099 464
-103.41 203.33099 464
-102.881 203.33099 464
-213.93401 148.715 505
-213.358 148.715 505
-263.758 157.27 518
-246.366 167.634 503
-245.79201 167.634 503
-245.218 167.634 503
-244.644 167.634 503
-244.071 167.634 503
-241.202 167.634 503
-240.054 167.634 503
-239.48 167.634 503
-238.907 167.634 503
-238.33299 167.634 503
-216.735 198.985 483
-216.18401 198.985 483
-215.633 198.985 483
-215.082 198.985 483
-218.84 198.293 484
-218.28799 198.293 484
-217.73599 198.293 484
-146.94701 174.75301 480
-146.399 174.75301 480
-145.85201 174.75301 480
-145.304 174.75301 480
-144.756 174.75301 480
-144.209 174.75301 480
-143.661 174.75301 480
-143.114 174.75301 480
-142.56599 174.75301 480
-142.019 174.75301 480
-140.924 174.75301 480
-140.37601 174.75301 480
-129.14799 189.743 471
-128.61 189.743 471
-126.461 189.743 471
-125.924 189.743 471
-125.387 189.743 471
-124.849 189.743 471
-124.312 189.743 471
-123.775 189.743 471
-123.238 189.743 471
-122.7 189.743 471
-122.163 189.743 471
-121.626 189.743 471
-121.089 189.743 471
-120.551 189.743 471
-120.014 189.743 471
-119.477 189.743 471
-118.939 189.743 471
-118.402 189.743 471
-117.865 189.743 471
-117.328 189.743 471
-116.79 189.743 471
-116.253 189.743 471
-115.716 189.743 471
-115.179 189.743 471
-114.641 189.743 471
-114.104 189.743 471
-113.567 189.743 471
-119.022 165.992 480
-118.475 165.992 480
-117.927 165.992 480
-117.379 165.992 480
-116.832 165.992 480
-116.284 165.992 480
-115.737 165.992 480
-115.189 165.992 480
-159.82201 209.355 468
-159.28799 209.355 468
-158.755 209.355 468
-158.22099 209.355 468
-157.687 209.355 468
-157.153 209.355 468
-156.619 209.355 468
-156.08501 209.355 468
-155.01801 209.355 468
-154.48399 209.355 468
-153.95 209.355 468
-153.416 209.355 468
-152.882 209.355 468
-213.64999 164.40401 495
-213.086 164.40401 495
-212.521 164.40401 495
-211.95599 164.40401 495
-209.698 164.40401 495
-209.133 164.40401 495
-208.56799 164.40401 495
-208.004 164.40401 495
-207.439 164.40401 495
-159.20799 184.224 479
-158.661 184.224 479
-154.795 149.633 491
-153.11501 149.633 491
-152.554 149.633 491
-139.91299 153.099 486
-139.35899 153.099 486
-138.80499 153.099 486
-138.25 153.099 486
-137.696 153.099 486
-137.14101 153.099 486
-124.038 189.07001 472
-116.5 189.07001 472
-115.962 189.07001 472
-204.64301 175.957 491
-204.08299 175.957 491
-158.33 184.92999 478
-185.561 216.07001 471
-185.024 216.07001 471
-184.487 216.07001 471
-127.734 213.522 462
-127.207 213.522 462
-126.68 213.522 462
-126.153 213.522 462
-119.829 213.522 462
-119.302 213.522 462
-118.775 213.522 462
-118.248 213.522 462
-117.721 213.522 462
-117.194 213.522 462
-116.667 213.522 462
-108.762 213.522 462
-108.235 213.522 462
-107.708 213.522 462
-175.819 146.899 495
-96.472397 145.03799 485
-95.919098 145.03799 485
-124.84 188.39101 473
-136.99899 187.70799 474
-136.459 187.70799 474
-135.918 187.70799 474
-135.377 187.70799 474
-134.83701 187.70799 474
-127.807 187.70799 474
-127.267 187.70799 474
-126.726 187.70799 474
-126.185 187.70799 474
-25.561899 153.32001 473
-25.0224 153.32001 473
-24.4828 153.32001 473
-22.3246 153.32001 473
-21.785101 153.32001 473
-21.245501 153.32001 473
-20.7059 153.32001 473
-20.166401 153.32001 473
-19.626801 153.32001 473
-19.087299 153.32001 473
-18.547701 153.32001 473
-18.0082 153.32001 473
-253.38699 177.826 501
-252.81599 177.826 501
-144.455 175.48199 479
-143.908 175.48199 479
-143.362 175.48199 479
-142.81599 175.48199 479
-142.269 175.48199 479
-141.72301 175.48199 479
-140.63 175.48199 479
-140.084 175.48199 479
-139.537 175.48199 479
-137.89799 175.48199 479
-137.35201 175.48199 479
-136.80499 175.48199 479
-154.41 186.328 476
-153.867 186.328 476
-153.32401 186.328 476
-152.78101 186.328 476
-152.23801 186.328 476
-151.69501 186.328 476
-151.15199 186.328 476
-150.60899 186.328 476
-150.06599 186.328 476
-149.52299 186.328 476
-148.98 186.328 476
-148.437 186.328 476
-147.894 186.328 476
-147.351 186.328 476
-146.808 186.328 476
-146.265 186.328 476
-171.311 161.19099 487
-170.755 161.19099 487
-170.19901 161.19099 487
-169.644 161.19099 487
-169.088 161.19099 487
-168.533 161.19099 487
-167.97701 161.19099 487
-167.422 161.19099 487
-166.866 161.19099 487
-232.94099 182.66701 494
-232.37801 182.66701 494
-231.25101 182.66701 494
-230.687 182.66701 494
-230.12399 182.66701 494
-229.56 182.66701 494
-151.918 187.02 475
-151.37601 187.02 475
-150.834 187.02 475
-150.29201 187.02 475
-149.75101 187.02 475
-149.209 187.02 475
-148.66701 187.02 475
-148.125 187.02 475
-200.907 154.29601 497
-200.34 154.29601 497
-199.77299 154.29601 497
-199.20599 154.29601 497
-251.45 153.396 511
-211.09599 151.537 501
-123.789 202.709 465
-123.259 202.709 465
-122.729 202.709 465
-116.894 202.709 465
-116.363 202.709 465
-115.833 202.709 465
-115.303 202.709 465
-114.772 202.709 465
-114.242 202.709 465
-233.16901 146.701 508
-232.589 146.701 508
-232.00999 146.701 508
-117.681 166.739 479
-117.135 166.739 479
-116.588 166.739 479
-116.042 166.739 479
-108.939 166.739 479
-233.85001 202.987 490
-233.291 202.987 490
-143.063 176.20599 478
-142.51801 176.20599 478
-137.065 176.20599 478
-136.52 176.20599 478
-233.373 203.688 489
-232.815 203.688 489
-161.769 208.73199 469
-161.23399 208.73199 469
-160.69901 208.73199 469
-158.024 208.73199 469
-157.489 208.73199 469
-155.884 208.73199 469
-155.349 208.73199 469
-224.718 171.871 497
-224.151 171.871 497
-182.049 157.795 492
-181.48801 157.795 492
-180.36501 157.795 492
-179.804 157.795 492
-22.8158 154.073 472
-22.277399 154.073 472
-142.21899 176.925 477
-136.778 176.925 477
-124.808 176.925 477
-124.263 176.925 477
-204.785 176.717 490
-204.226 176.717 490
-203.66701 176.717 490
-189.186 215.452 472
-188.647 215.452 472
-188.10899 215.452 472
-187.571 215.452 472
-187.032 215.452 472
-186.494 215.452 472
-185.955 215.452 472
-185.41701 215.452 472
-184.879 215.452 472
-211.528 165.198 494
-210.965 165.198 494
-210.401 165.198 494
-208.147 165.198 494
-200.258 165.198 494
-230.745 161.748 499
-230.17599 161.748 499
-229.60699 161.748 499
-226.192 161.748 499
-225.623 161.748 499
-225.05299 161.748 499
-224.48399 161.748 499
-218.22301 161.748 499
-217.65401 161.748 499
-233.595 183.422 493
-233.032 183.422 493
-232.47 183.422 493
-231.908 183.422 493
-230.783 183.422 493
-116.345 167.48199 478
-115.8 167.48199 478
-108.711 167.48199 478
-108.166 167.48199 478
-107.621 167.48199 478
-107.076 167.48199 478
-106.53 167.48199 478
-245.30299 168.446 502
-244.158 168.446 502
-243.58501 168.446 502
-240.722 168.446 502
-164.306 161.96899 486
-264.65302 160.16 514
-264.06601 160.16 514
-263.48001 160.16 514
-262.89401 160.16 514
-124.056 202.082 466
-123.524 202.082 466
-111.83 202.082 466
-110.766 202.082 466
-110.235 202.082 466
-109.703 202.082 466
-109.172 202.082 466
-108.64 202.082 466
-108.109 202.082 466
-107.577 202.082 466
-134.34801 212.92799 463
-133.82001 212.92799 463
-133.29201 212.92799 463
-132.76401 212.92799 463
-132.23599 212.92799 463
-131.707 212.92799 463
-131.179 212.92799 463
-130.651 212.92799 463
-128.00999 212.92799 463
-127.482 212.92799 463
-126.954 212.92799 463
-141.92101 177.64 476
-141.37801 177.64 476
-137.034 177.64 476
-123.46 177.64 476
-122.917 177.64 476
-122.374 177.64 476
-121.831 177.64 476
-121.288 177.64 476
-151.685 150.446 490
-151.12601 150.446 490
-150.008 150.446 490
-148.89 150.446 490
-55.006901 169.78101 462
-54.4799 169.78101 462
-252.311 178.612 500
-251.741 178.612 500
-240.80701 156.244 507
-240.228 156.244 507
-164.258 208.105 470
-163.722 208.105 470
-163.186 208.105 470
-162.64999 208.105 470
-140.539 178.351 475
-139.998 178.351 475
-139.45599 178.351 475
-138.914 178.351 475
-138.37199 178.351 475
-137.28799 178.351 475
-136.74699 178.351 475
-122.659 178.351 475
-121.575 178.351 475
-121.033 178.351 475
-120.491 178.351 475
-119.95 178.351 475
-119.408 178.351 475
-95.226303 183.196 468
-94.692398 183.196 468
-94.1586 183.196 468
-93.624702 183.196 468
-181.31 170.07899 487
-180.754 170.07899 487
-180.19901 170.07899 487
-179.64301 170.07899 487
-178.532 170.07899 487
-177.97701 170.07899 487
-177.42101 170.07899 487
